# .PCD v0.7 - Point Cloud Data file format
VERSION 0.7
FIELDS x y z
SIZE 4 4 4
TYPE F F F
COUNT 1 1 1
WIDTH 1275
HEIGHT 1
VIEWPOINT 0 0 0 1 0 0 0
POINTS 1275
DATA ascii
-15.70250034 43.83140182 0.3770549893
6.923530102 38.78979874 -0.6877779961
-5.664140224 15.77600002 -4.030819893
2.66505003 14.99170017 -4.07998991
-9.274120331 25.80240059 -2.656419992
4.100120068 23.11120033 -2.882009983
8.831569672 49.88230133 0.884239018
-6.314539909 17.52980042 -3.799540043
2.914350033 16.49430084 -3.866990089
-11.13090038 30.86669922 -2.027470112
4.700880051 26.65979958 -2.36841011
-15.34150028 42.49649811 3.527559996
-7.118229866 19.65329933 -3.509119987
3.192490101 18.25440025 -3.602149963
-13.82559967 38.13050079 -1.088629961
5.510179996 31.57169914 -1.679610014
-14.95740032 41.20729828 4.967830181
14.13479996 81.15519714 7.207039833
-5.200769901 14.29679966 -4.22439003
2.383440018 13.74129963 -4.263869762
-8.096389771 22.23270035 -3.129090071
3.527640104 20.38030052 -3.275919914
-16.27680016 44.64749908 0.3827979863
6.701700211 38.79840088 -0.6872569919
-5.756859779 15.75699997 -4.034850121
2.575550079 15.00440025 -4.079219818
-9.445719719 25.79780006 -2.662940025
3.963010073 23.13570023 -2.882080078
8.526220322 49.88010025 0.8832880259
-6.429810047 17.5041008 -3.803570032
2.810230017 16.50979996 -3.866400003
-11.32559967 30.7989006 -2.029249907
4.531809807 26.68020058 -2.367650032
-16.00189972 43.46879959 3.614279985
-7.241509914 19.6291008 -3.513390064
3.084069967 18.27280045 -3.602099895
-14.00879955 37.93190002 -1.087170005
5.316020012 31.56399918 -1.677489996
-15.18420029 41.07030106 4.960070133
-5.295390129 14.27709961 -4.229070187
2.296439886 13.7524004 -4.262740135
-8.259160042 22.24399948 -3.139090061
3.398849964 20.3980999 -3.275279999
-17.8465004 48.01369858 0.4101189971
6.46077013 38.85770035 -0.687574029
-5.859069824 15.72939968 -4.037990093
2.48548007 15.01340008 -4.077589989
-9.622469902 25.80520058 -2.670830011
3.824980021 23.15480042 -2.881580114
8.226840019 49.91019821 0.8829399943
-6.542669773 17.47139931 -3.806250095
2.706370115 16.52669907 -3.866309881
-11.54599953 30.79940033 -2.035629988
4.360789776 26.68799973 -2.365859985
-16.0739994 42.83250046 3.567470074
-7.362460136 19.57719994 -3.51335001
2.968909979 18.29000092 -3.601749897
-14.19999981 37.71870041 -1.085559964
5.117129803 31.59390068 -1.677340031
-15.47659969 41.06610107 4.969049931
-5.384130001 14.25629997 -4.233029842
2.208679914 13.75839996 -4.260220051
-8.398349762 22.19059944 -3.140100002
3.271090031 20.4218998 -3.275739908
-18.20159912 48.04249954 0.4088290036
6.222599983 38.93569946 -0.688248992
-5.963419914 15.70720005 -4.042650223
2.390310049 15.0237999 -4.07626009
-9.79335022 25.76779938 -2.674619913
3.674220085 23.14570045 -2.877510071
7.905940056 49.91579819 0.8821430206
-6.649400234 17.44050026 -3.808939934
2.607219934 16.53590012 -3.864779949
-11.75440025 30.79809952 -2.041640043
4.194920063 26.72699928 -2.366930008
-16.10810089 42.1169014 3.514019966
-7.503530025 19.5781002 -3.522929907
2.853379965 18.30470085 -3.6010499
-14.40229988 37.53900146 -1.084939957
4.927239895 31.68149948 -1.680320024
-5.480669975 14.24050045 -4.23927021
2.126250029 13.76640034 -4.258709908
-8.531970024 22.14579964 -3.141979933
3.150549889 20.44549942 -3.276469946
5.973130226 38.94329834 -0.6877070069
-16.3791008 42.38159943 6.756959915
-6.066400051 15.68080044 -4.046430111
2.295330048 15.03509998 -4.075300217
-9.957590103 25.71229935 -2.676650047
3.527940035 23.16309929 -2.876869917
-14.65180016 37.79430008 1.736439943
7.595240116 49.98469925 0.8825010061
-6.763810158 17.41119957 -3.812659979
2.502150059 16.54450035 -3.86303997
-11.95320034 30.7378006 -2.04418993
4.032420158 26.72599983 -2.364680052
-16.32629967 41.93999863 3.505189896
-7.629749775 19.53919983 -3.525520086
2.737999916 18.32019997 -3.600640059
-14.6097002 37.37580109 -1.084820032
4.720149994 31.65859985 -1.677489996
-5.57336998 14.21430016 -4.242579937
2.038640022 13.77219963 -4.256470203
-8.680290222 22.1154995 -3.146529913
3.01838994 20.44029999 -3.272530079
-18.84799957 47.97140121 0.4052540064
5.743209839 38.98680115 -0.6878610253
-16.42970085 41.77349854 6.673349857
-6.165800095 15.66090012 -4.051469803
2.199889898 15.04279995 -4.073579788
-10.14570045 25.71689987 -2.685080051
3.382250071 23.18429947 -2.87680006
-14.70170021 37.22740173 1.712640047
7.27368021 49.98099899 0.8816109896
-6.877299786 17.37899971 -3.815939903
2.396640062 16.54949951 -3.860610008
-12.1651001 30.70999908 -2.049000025
3.868419886 26.7784996 -2.367130041
-16.77499962 42.30419922 3.542140007
-7.747039795 19.49729919 -3.527179956
2.628979921 18.33429909 -3.600280046
-14.83990002 37.31019974 -1.087309957
4.523620129 31.70499992 -1.678410053
15.64309978 109.913002 9.713040352
-5.66865015 14.19419956 -4.247910023
1.951390028 13.77999973 -4.255010128
-8.829839706 22.08749962 -3.151550055
2.888930082 20.45199966 -3.271430016
-19.22590065 48.04410172 0.4043450058
5.494130135 38.99369812 -0.6873599887
-16.60820007 41.46070099 6.637710094
-6.268819809 15.63370037 -4.055389881
2.110019922 15.05160046 -4.072490215
-10.31309986 25.6935997 -2.690269947
3.242110014 23.18610001 -2.87458992
6.955949783 50.00019836 0.8811609745
-6.992809772 17.35149956 -3.8204
2.291729927 16.55789948 -3.859139919
-12.38780022 30.7071991 -2.055599928
3.696019888 26.77280045 -2.364530087
-17.10650063 42.36149979 3.5536201
-7.877409935 19.46800041 -3.531820059
2.513070107 18.34569931 -3.599339962
-15.0546999 37.16849899 -1.087880015
4.337220192 31.7446003 -1.679119945
14.98989964 109.9990005 9.712639809
-5.761909962 14.16870022 -4.251790047
1.863929987 13.78579998 -4.253089905
-8.976989746 22.05249977 -3.155730009
2.760989904 20.47430038 -3.272170067
-19.58690071 48.06829834 0.4030300081
5.25262022 39.05410004 -0.6878299713
-6.37375021 15.61069965 -4.060579777
2.014630079 15.05869961 -4.070909977
-10.48670006 25.65850067 -2.694809914
3.097599983 23.21520042 -2.875730038
6.651860237 49.98600006 0.8802000284
-7.101789951 17.3246994 -3.824589968
2.19204998 16.56080055 -3.85668993
-12.58819962 30.67810059 -2.060159922
3.525899887 26.78160095 -2.363300085
-17.34720039 42.19219971 3.546240091
-8.008159637 19.43899918 -3.536659956
2.397170067 18.3567009 -3.598469973
-15.31050014 37.12789917 -1.09145999
4.13519001 31.75209999 -1.678110003
-17.98259926 43.5646019 5.324930191
14.38169956 110.7320023 9.769169807
-5.851429939 14.14760017 -4.256549835
1.781610012 13.79290009 -4.251949787
-9.130590439 22.05419922 -3.164779902
2.63973999 20.49270058 -3.272540092
-19.90229988 48.02479935 0.4012350142
5.005050182 39.07009888 -0.6875439882
-17.60720062 42.40309906 6.818910122
-6.477290154 15.58380032 -4.064939976
1.919149995 15.06459999 -4.069159985
-10.66720009 25.63899994 -2.7011199
2.95152998 23.23310089 -2.875590086
6.355480194 50.16749954 0.8826739788
-7.216650009 17.29439926 -3.828789949
2.087500095 16.57060051 -3.855859995
-12.79599953 30.63509941 -2.064260006
3.364449978 26.78240013 -2.361569881
-8.127030373 19.38089943 -3.536350012
2.281559944 18.3696003 -3.598119974
-15.55210018 37.05149841 -1.094040036
3.930210114 31.73390007 -1.675809979
-17.96960068 42.76919937 5.239099979
-5.944590092 14.12100029 -4.260469913
1.694350004 13.79920006 -4.250520229
-9.270540237 22.00009918 -3.166500092
2.511499882 20.51350021 -3.273269892
-20.23940086 47.98360062 0.3993819952
4.775239944 39.11660004 -0.6878510118
-17.7371006 42.0102005 6.77038002
-6.575459957 15.55879974 -4.069340229
1.823770046 15.07069969 -4.067629814
-10.84220028 25.60479927 -2.706020117
2.80479002 23.24539948 -2.874870062
-45.61180115 107.6119995 4.978469849
6.029300213 50.11629868 0.8810899854
-7.332570076 17.26609993 -3.833600044
1.982489944 16.57629967 -3.8542099
-13.00590038 30.59550095 -2.068700075
3.198940039 26.82679939 -2.363670111
-8.257289886 19.36840057 -3.543950081
2.1714499 18.37369919 -3.596339941
-15.7802 36.97850037 -1.096500039
3.735049963 31.79459953 -1.677739978
-6.039319992 14.09759998 -4.265580177
1.607010007 13.80440044 -4.248929977
-9.426449776 21.98310089 -3.173700094
2.380820036 20.51390076 -3.270889997
-20.64030075 48.08810043 0.3987439871
4.529910088 39.15050125 -0.6879320145
-6.678959846 15.53079987 -4.07378006
1.733860016 15.07730007 -4.066579819
-10.99549961 25.54380035 -2.707710028
2.668200016 23.27370071 -2.876369953
-46.42169952 107.7389984 4.991529942
5.721129894 50.21310043 0.8821430206
-7.448200226 17.23660088 -3.83829999
1.877810001 16.58410072 -3.853199959
-13.20619965 30.53249931 -2.071650028
3.029659986 26.84059906 -2.363149881
-8.383649826 19.32729912 -3.547049999
2.055639982 18.38419914 -3.595779896
-16.03809929 36.9382019 -1.100260019
3.544950008 31.80400085 -1.677099943
-6.132209778 14.06960011 -4.269460201
1.520040035 13.81239986 -4.248350143
-9.570429802 21.93720055 -3.17689991
2.25225997 20.53190041 -3.271430016
-21.03160095 48.16249847 0.3978550136
4.284210205 39.18159866 -0.6879940033
-6.781799793 15.50090027 -4.077879906
1.638589978 15.08329964 -4.065330029
-11.18319988 25.5366993 -2.715739965
2.523289919 23.30279922 -2.877939939
-41.57659912 94.84950256 4.401269913
5.416329861 50.18389893 0.8810489774
-7.557089806 17.20739937 -3.842619896
1.773190022 16.59189987 -3.85236001
-13.43200016 30.52659988 -2.078589916
2.863549948 26.88339996 -2.36529994
-8.517049789 19.30170059 -3.553159952
1.945739985 18.38870049 -3.594360113
-16.2791996 36.8927002 -1.103649974
3.352530003 31.7901001 -1.675289989
-6.221620083 14.04660034 -4.274340153
1.437630057 13.81719971 -4.247129917
-9.711990356 21.90609932 -3.181809902
2.127929926 20.52129936 -3.267669916
-21.38380051 48.18740082 0.3966389894
4.049590111 39.18659973 -0.6876459718
15.33129978 148.8639984 18.37490082
-6.879730225 15.47399998 -4.082290173
1.549020052 15.0923996 -4.065239906
-11.34140015 25.48530006 -2.718699932
2.380759954 23.27619934 -2.872869968
-42.29330063 94.94819641 4.412559986
5.123489857 50.26459885 0.8819180131
-7.666460037 17.17889977 -3.847229958
1.680259943 16.59930038 -3.851840019
-13.63329983 30.52050018 -2.084800005
2.701809883 26.8784008 -2.363409996
-8.633099556 19.25449944 -3.554850101
1.829599977 18.39489937 -3.593250036
-16.56900024 36.91960144 -1.109549999
3.154580116 31.82920074 -1.676270008
-6.309830189 14.02040005 -4.278450012
1.355649948 13.82590008 -4.24725008
-9.847769737 21.86129951 -3.184870005
2.007810116 20.55080032 -3.270420074
-21.72500038 48.18299866 0.395186007
3.815330029 39.19300079 -0.6873490214
14.40149975 149.0180054 18.38240051
-6.981840134 15.44159985 -4.086090088
1.454040051 15.10060024 -4.064889908
-11.51720047 25.44869995 -2.723839998
2.232409954 23.26930046 -2.870229959
-42.85020065 94.59470367 4.403409958
4.822450161 50.45149994 0.884648025
-7.782330036 17.14819908 -3.852180004
1.575459957 16.60460091 -3.850680113
-13.84070015 30.46940041 -2.088870049
2.543030024 26.90209961 -2.364120007
-8.749839783 19.20870018 -3.556920052
1.713289976 18.39859962 -3.591789961
-16.81139946 36.83819962 -1.112259984
2.954849958 31.8519001 -1.676450014
-6.403960228 13.99400043 -4.283360004
1.268599987 13.83240032 -4.246719837
-9.994130135 21.81909943 -3.188999891
1.877220035 20.54750061 -3.267950058
-22.03590012 48.06420135 0.3927179873
3.571439981 39.24300003 -0.6878190041
13.53530025 149.3029938 18.40719986
-7.081230164 15.41699982 -4.091460228
1.36424005 15.10709953 -4.06441021
-11.67650032 25.39839935 -2.727149963
2.095910072 23.30010033 -2.8724401
-49.64260101 107.8820038 5.029970169
4.502130032 50.44469833 0.8840140104
-7.896979809 17.11420059 -3.856580019
1.470960021 16.61249924 -3.850310087
-14.07600021 30.47739983 -2.097110033
2.374160051 26.91990089 -2.364330053
-8.888079643 19.19169998 -3.565089941
1.603780031 18.40509987 -3.591130018
-17.05279922 36.78770065 -1.115669966
2.765729904 31.86829948 -1.676419973
-6.49382019 13.97060013 -4.28869009
1.181890011 13.8427 -4.247529984
-10.16259956 21.82369995 -3.200150013
1.748819947 20.56749916 -3.269320011
-22.45199966 48.17070007 0.3920939863
3.322570086 39.23839951 -0.6873589754
12.58230019 149.2120056 18.3859005
-7.182919979 15.38290024 -4.095160007
1.269250035 15.11489964 -4.06427002
-11.85169983 25.35840034 -2.732189894
1.946949959 23.28269958 -2.868730068
-50.46580124 107.8799973 5.038680077
4.196630001 50.39749908 0.8827360272
-8.00551033 17.0821991 -3.860909939
1.371970057 16.61630058 -3.849230051
-14.2560997 30.39229965 -2.098609924
2.204679966 26.93079948 -2.364020109
-51.77780151 110.1839981 9.416509628
-9.033849716 19.18930054 -3.576189995
1.487589955 18.4083004 -3.589869976
-17.3166008 36.74980164 -1.119819999
2.567929983 31.91589928 -1.678050041
-6.587890148 13.94309998 -4.293670177
1.099550009 13.84729958 -4.246880054
-10.30609989 21.79299927 -3.205699921
1.626330018 20.57229996 -3.268490076
-22.80590057 48.18119812 0.3907699883
3.091840029 39.28490067 -0.6878399849
11.63389969 149.1519928 18.36919975
-7.286970139 15.35330009 -4.100269794
1.174270034 15.12269974 -4.06430006
-12.03880024 25.3423996 -2.739969969
1.80084002 23.29739952 -2.86909008
-51.29850006 107.8889999 5.048089981
3.885960102 50.50170135 0.884115994
-8.120289803 17.04759979 -3.86548996
1.267130017 16.61919975 -3.847970009
-14.4751997 30.36170006 -2.104419947
2.043420076 26.92480087 -2.362390041
-52.13819885 109.2610016 9.358249664
-9.145810127 19.13170052 -3.576519966
1.37827003 18.41600037 -3.589720011
-17.55200005 36.6833992 -1.122859955
2.365060091 31.90049934 -1.676419973
-6.682079792 13.91549969 -4.298779964
1.012680054 13.85599995 -4.247489929
-10.45370007 21.75040054 -3.210230112
1.49763 20.59020042 -3.269779921
-23.22809982 48.28609848 0.3901289999
2.84604001 39.31869888 -0.6881060004
10.78600025 149.7359924 18.43289948
-7.38338995 15.32110023 -4.104119778
1.08434999 15.12720013 -4.063710213
-12.20009995 25.29360008 -2.743799925
1.66384995 23.32559967 -2.871299982
-52.10039902 107.9189987 5.05824995
3.562469959 50.43870163 0.8826029897
-8.233610153 17.00939941 -3.869450092
1.162629962 16.62610054 -3.847800016
-14.66679955 30.27230072 -2.106250048
1.874660015 26.94350052 -2.362950087
-52.51499939 108.2949982 9.297559738
-9.280989647 19.10499954 -3.583440065
1.262380004 18.42210007 -3.589289904
-17.82439995 36.65930176 -1.127570033
2.176000118 31.91810036 -1.676640034
-6.7709198 13.88869953 -4.303599834
0.9254909754 13.86050034 -4.247010231
-10.60569954 21.71610069 -3.216160059
1.367650032 20.59059906 -3.268409967
-23.54439926 48.16659927 0.3876770139
2.59916997 39.33929825 -0.688166976
9.876259804 150.2779999 18.49160004
-7.487780094 15.29129982 -4.109529972
0.9893140197 15.1342001 -4.063849926
-12.37709999 25.25370026 -2.749249935
1.516199946 23.3192997 -2.869299889
-52.95349884 107.9489975 5.06911993
3.274470091 50.63489914 0.8856809735
-8.342049599 16.97579956 -3.87390995
1.06377995 16.63010025 -3.847199917
-14.94709969 30.38999939 -2.122169971
1.715109944 26.95999908 -2.363460064
-53.38190079 108.439003 9.3312397
-9.42208004 19.08939934 -3.592609882
1.146440029 18.42709923 -3.58878994
-18.10320091 36.64530182 -1.132650018
1.974939942 31.92350006 -1.676239967
-6.862889767 13.85560036 -4.307439804
0.8431990147 13.86530018 -4.246880054
-10.75319958 21.69079971 -3.222959995
1.246700048 20.61919975 -3.271709919
-23.96960068 48.30789948 0.3874090016
2.367660046 39.38679886 -0.688740015
-7.58987999 15.25629997 -4.113749981
0.8940839767 15.13809967 -4.063300133
-12.53569984 25.17589951 -2.750720024
1.371359944 23.35750008 -2.872869968
-53.78300095 107.9199982 5.077479839
2.959369898 50.70769882 0.8866109848
-8.454839706 16.93560028 -3.877759933
0.9592790008 16.6364994 -3.847219944
-15.20199966 30.42420006 -2.132879972
1.54471004 26.95330048 -2.361979961
-54.39670181 108.7699966 9.38286972
-9.547100067 19.05690002 -3.598119974
1.037109971 18.4340992 -3.588890076
-18.37420082 36.64459991 -1.137920022
1.774090052 31.93120003 -1.676020026
-6.95539999 13.82330036 -4.311699867
0.7560790181 13.87059975 -4.246960163
-10.89680004 21.63780022 -3.226419926
1.116870046 20.62190056 -3.270970106
-24.31229973 48.23479843 0.3853389919
2.120290041 39.40390015 -0.688790977
-7.689439774 15.22920036 -4.119480133
0.8042489886 15.14330006 -4.063350201
-12.70940018 25.14949989 -2.757359982
1.231099963 23.33440018 -2.86909008
-54.61999893 107.9889984 5.090199947
2.659060001 50.73669815 0.8868259788
-8.570599556 16.90099907 -3.883039951
0.8549169898 16.64590073 -3.848069906
-15.40219975 30.34630013 -2.13586998
1.375949979 26.97470093 -2.363049984
-55.92419815 110.0899963 9.5206604
-9.674750328 19.01250076 -3.602220058
0.9211900234 18.43880081 -3.588609934
-18.6154995 36.55080032 -1.140669942
1.585180044 31.95339966 -1.676669955
-7.042660236 13.79230022 -4.315740108
0.6687800288 13.87230015 -4.246109962
-11.05379963 21.61030006 -3.233839989
0.9870550036 20.62389946 -3.270240068
-24.69869995 48.24489975 0.3839380145
1.873260021 39.42869949 -0.689005971
-7.794010162 15.19820023 -4.12514019
0.7090010047 15.14630032 -4.062870026
-12.86870003 25.07229996 -2.759130001
1.085489988 23.36380005 -2.871799946
-55.47290039 107.9850006 5.100259781
2.344510078 50.84540176 0.8884530067
-8.679030418 16.86590004 -3.887660027
0.756148994 16.65119934 -3.848200083
-15.5951004 30.27980042 -2.139290094
1.214020014 26.9416008 -2.359469891
-56.12400055 108.8789978 9.438690186
-9.794589996 18.95240021 -3.603509903
0.8055189848 18.44890022 -3.589509964
-18.89319992 36.52679825 -1.145660043
1.385020018 31.97730064 -1.677430034
-7.135369778 13.75969982 -4.320290089
0.586345017 13.87360001 -4.245369911
-11.2020998 21.58349991 -3.240890026
0.8646330237 20.62890053 -3.27015996
-25.12420082 48.36629868 0.3835020065
1.640220046 39.46250153 -0.6894140244
-7.892910004 15.16870022 -4.130609989
0.6138659716 15.15149975 -4.063169956
-13.05430031 25.04520035 -2.766540051
0.9387429953 23.37190056 -2.872020006
-56.3368988 107.9919968 5.111090183
2.021409988 50.76900101 0.8868770003
-8.795669556 16.83180046 -3.893440008
0.6516500115 16.65920067 -3.849009991
-15.83380032 30.27449989 -2.147609949
1.046710014 27.00009918 -2.363970041
-56.93619919 108.7710037 9.453980446
-9.918689728 18.91650009 -3.608829975
0.6961460114 18.45639992 -3.590110064
-19.14640045 36.48410034 -1.14981997
1.183709979 31.97550011 -1.676910043
-7.228499889 13.7276001 -4.325180054
0.4990749955 13.87460041 -4.244619846
-11.36079979 21.55690002 -3.248780012
0.7283679843 20.65029907 -3.272720098
-25.5007 48.30530167 0.3814559877
1.378579974 39.47600174 -0.6894760132
-8.002380371 15.13309956 -4.136209965
0.5186979771 15.15639973 -4.063519955
-13.22509956 24.98839951 -2.770819902
0.7924069762 23.39299965 -2.873939991
-57.21319962 108.012001 5.122779846
1.70765996 50.9382019 0.8896279931
-8.911049843 16.79470062 -3.898699999
0.547013998 16.6644001 -3.849359989
-16.06870079 30.25919914 -2.155369997
0.8762120008 26.98040009 -2.361720085
-58.46039963 109.9950027 9.585829735
-10.05150032 18.86450005 -3.612720013
0.5739690065 18.46859932 -3.591660023
-19.43950081 36.45299911 -1.155069947
0.9836779833 32.01160049 -1.678449988
-7.321959972 13.69559956 -4.330339909
0.4118570089 13.87629986 -4.244289875
-11.50479984 21.50149918 -3.252490044
0.6053749919 20.63929939 -3.270339966
-25.88680077 48.33959961 0.3803290129
1.145529985 39.52569962 -0.6902130246
-8.10544014 15.09770012 -4.141250134
0.4234800041 15.16009998 -4.063729763
-13.39449978 24.92849922 -2.774879932
0.6447039843 23.37190056 -2.870800018
-58.08010101 108.0019989 5.133359909
1.386039972 50.89170074 0.8886460066
-9.028450012 16.76070023 -3.90489006
0.4423460066 16.66939926 -3.849780083
-16.2689991 30.17720032 -2.158489943
0.7068110108 26.99069977 -2.362179995
-59.07759857 109.4909973 9.567779541
-10.18449974 18.84370041 -3.621269941
0.4580140114 18.47570038 -3.592420101
-19.74530029 36.47269821 -1.161689997
0.7826669812 32.02299881 -1.678750038
-7.416289806 13.66489983 -4.336070061
0.3245649934 13.87450027 -4.243020058
-11.64330006 21.43540001 -3.25474
0.4753359854 20.62759972 -3.267950058
-26.27510071 48.33250046 0.3787940145
0.8982260227 39.57899857 -0.6910309792
-8.202969551 15.06410027 -4.146180153
0.3335120082 15.16240025 -4.063729763
-13.56760025 24.89520073 -2.781450033
0.4983370006 23.3987999 -2.873660088
-58.97800064 108.0390015 5.146420002
1.068619967 51.01250076 0.8906210065
-9.144309998 16.72330093 -3.910449982
0.3376080096 16.67210007 -3.849829912
-16.48250008 30.11849976 -2.163389921
0.5374770164 27.00799942 -2.363359928
-60.29449844 110.0849991 9.646289825
-10.30959988 18.79199982 -3.62480998
0.3484440148 18.48200035 -3.593179941
-20.02599907 36.47249985 -1.167430043
0.5930460095 32.04990005 -1.679949999
-7.509900093 13.63230038 -4.341450214
0.2374770045 13.88160038 -4.244659901
-11.79570007 21.39439964 -3.260940075
0.346186012 20.65789986 -3.272350073
-26.69339943 48.37530136 0.377651006
0.649788022 39.59970093 -0.6913070083
-8.305379868 15.02659988 -4.15102005
0.2382380068 15.16409969 -4.063720226
-13.72319984 24.8083992 -2.782759905
0.3595300019 23.40480042 -2.874089956
-59.83729935 108.0830002 5.159440041
0.7670829892 51.09700012 0.8920009732
-9.255880356 16.69120026 -3.91666007
0.2328940034 16.67709923 -3.850579977
-16.70319939 30.07159996 -2.169260025
0.3679859936 27.02659988 -2.364729881
-61.39080048 110.4339981 9.704090118
-10.44939995 18.76619911 -3.633529902
0.232299 18.48279953 -3.592979908
-20.2901001 36.40940094 -1.171569943
0.3917460144 32.06000137 -1.680320024
-7.600140095 13.60449982 -4.347640038
0.155073002 13.88059998 -4.243999958
-11.92389965 21.32659912 -3.262510061
0.2163150012 20.65329933 -3.271339893
-27.0659008 48.32979965 0.3758189976
0.4011900127 39.62519836 -0.6916959882
-8.407939911 14.98900032 -4.156020164
0.1429139972 15.16110039 -4.062580109
-13.88020039 24.7241993 -2.784490108
0.2124090046 23.40019989 -2.873300076
-60.74340057 108.1110001 5.172639847
0.4465079904 51.1570015 0.8929820061
-9.373390198 16.65550041 -3.923010111
0.1339340061 16.67919922 -3.850820065
-16.90629959 30.0163002 -2.174119949
0.207445994 27.00779915 -2.362940073
-10.58780003 18.73690033 -3.641760111
0.1161810011 18.48670006 -3.593509912
-20.55599976 36.34749985 -1.175819993
0.1904300004 32.08349991 -1.681450009
-7.693490028 13.57059956 -4.353000164
0.06786700338 13.88370037 -4.244709969
-12.06449986 21.26339912 -3.26560998
0.09379920363 20.66399956 -3.272890091
-27.54829979 48.51380157 0.3758510053
0.1662120074 39.66790009 -0.6924110055
-8.511489868 14.95259953 -4.161580086
0.0476440005 15.15909958 -4.061880112
-14.05580044 24.67250061 -2.789989948
0.06536930054 23.39699936 -2.872800112
-61.65090179 108.1299973 5.185649872
0.1251409948 51.18690109 0.8934730291
-9.49090004 16.61919975 -3.929399967
0.02914009988 16.68359947 -3.851720095
-17.14100075 29.99069977 -2.181770086
0.03775189817 27.0114994 -2.363199949
-70.67359924 123.5540009 10.91800022
-10.72500038 18.71940041 -3.651710033
2.452599983e-05 18.48520088 -3.5931499
-20.82819939 36.2947998 -1.180449963
-0.01116370037 32.10919952 -1.682770014
-7.787889957 13.53810024 -4.359020233
-0.01936759986 13.88389969 -4.244729996
-12.22130013 21.22789955 -3.273149967
-0.03606320173 20.67869949 -3.275190115
-27.83040047 48.30110168 0.3727290034
-0.08301410079 39.66049957 -0.6922780275
-8.610019684 14.91909981 -4.167240143
-0.0423104018 15.15810013 -4.061620235
-14.21070004 24.60379982 -2.793080091
-0.0816629976 23.40390015 -2.873650074
-62.59140015 108.1940002 5.201139927
-0.1965759993 51.21250153 0.8939229846
-9.607680321 16.58090019 -3.935529947
-0.0756907016 16.68449974 -3.85194993
-17.35289955 29.92340088 -2.1865201
-0.132148996 27.04859924 -2.366470098
-71.50009918 123.1959991 10.91860008
-10.85200024 18.66810036 -3.656039953
-0.1096820012 18.48740005 -3.593650103
-21.06419945 36.20650101 -1.18362999
-0.2016409934 32.09859848 -1.682250023
-7.880080223 13.50139999 -4.363870144
-0.1066050008 13.88399982 -4.244880199
-12.36559963 21.1697998 -3.277349949
-0.1660739928 20.68849945 -3.276839972
-22.00519943 37.64250183 0.2893300056
-0.3327299953 39.72190094 -0.6933720112
-8.714590073 14.8835001 -4.173409939
-0.1375470012 15.15740013 -4.061580181
-14.39710045 24.56889915 -2.800780058
-0.2207410038 23.42399979 -2.876230001
-22.00200081 37.51660156 1.807680011
-0.5015389919 51.31999969 0.8958349824
-9.725410461 16.5435009 -3.942090034
-0.1805299968 16.68460083 -3.852169991
-17.56780052 29.86009979 -2.191679955
-0.3023700118 27.07169914 -2.368619919
-10.99289989 18.63990021 -3.665090084
-0.2258680016 18.48870087 -3.594110012
-21.33620071 36.14970016 -1.188259959
-0.4033539891 32.09960175 -1.682399988
-7.96984005 13.47099972 -4.370009899
-0.193799004 13.88020039 -4.244019985
-12.50720024 21.10659981 -3.280930042
-0.2959190011 20.67720032 -3.275279999
-22.0177002 37.12649918 0.2842319906
-0.5829489827 39.76350021 -0.6941480041
-8.819820404 14.84840012 -4.179940224
-0.2328249961 15.15919971 -4.06235981
-14.56820011 24.50650024 -2.805500031
-0.3678129911 23.41570091 -2.875439882
-22.07799911 37.11000061 1.792539954
-0.825428009 51.40599823 0.8974099755
-9.83506012 16.50510025 -3.947710037
-0.2795540094 16.68449974 -3.852449894
-17.78339958 29.82019997 -2.198120117
-0.4719190001 27.03829956 -2.365910053
-11.11919975 18.5862999 -3.669339895
-0.3420520127 18.48810005 -3.594330072
-21.58909988 36.05860138 -1.191830039
-0.6059920192 32.14730072 -1.685070038
-8.062669754 13.43449974 -4.375370026
-0.2762300074 13.88230038 -4.245069981
-12.65620041 21.07189941 -3.288340092
-0.4184969962 20.66930008 -3.274359941
-22.02339935 36.63869858 0.279440999
-0.8189510107 39.76169968 -0.6941900253
-8.925919533 14.81429958 -4.18693018
-0.3281399906 15.16069984 -4.063250065
-14.7656002 24.48699951 -2.815289974
-0.5154160261 23.43510056 -2.87816
-22.01230049 36.47600174 1.766389966
-1.147879958 51.37639999 0.8970010281
-9.950139999 16.46209908 -3.953299999
-0.3843069971 16.67919922 -3.851720095
-18.00729942 29.76889992 -2.204410076
-0.6329579949 27.06069946 -2.368149996
-11.24909973 18.55270004 -3.67685008
-0.4582520127 18.48730087 -3.594670057
-21.8647995 36.00379944 -1.19667995
-0.8075119853 32.12480164 -1.684120059
-21.94720078 36.11109924 4.722000122
-8.158140182 13.40200043 -4.382219791
-0.3634459972 13.88020039 -4.24503994
-12.80889988 21.02569962 -3.294889927
-0.5492449999 20.69980049 -3.279680014
-1.069489956 39.78269958 -0.694660008
-21.91720009 35.92039871 6.197110176
-9.022959709 14.77620029 -4.192100048
-0.4182060063 15.16240025 -4.064280033
-14.99699974 24.54030037 -2.832989931
-0.6623060107 23.41909981 -2.876650095
-1.47397995 51.48410034 0.8990259767
-10.06449986 16.41740036 -3.958659887
-0.4891700149 16.67900085 -3.852289915
-18.22120094 29.69949913 -2.209480047
-0.8031290174 27.06150055 -2.368619919
-11.36149979 18.47520065 -3.676700115
-0.5680649877 18.48800087 -3.595400095
-22.10540009 35.91790009 -1.200189948
-0.9991250038 32.1515007 -1.685799956
-22.18610001 36.02090073 4.725289822
-8.252149582 13.36660004 -4.38835001
-0.4507080019 13.87940025 -4.24559021
-12.95269966 20.96409988 -3.299180031
-0.6792939901 20.69589996 -3.279680014
-1.321820021 39.84719849 -0.6959180236
-22.2220993 35.91059875 6.21721983
-9.128499985 14.73999977 -4.198929787
-0.513586998 15.16300011 -4.06524992
-15.16499996 24.46829987 -2.837100029
-0.8019009829 23.4333992 -2.878940105
-1.783010006 51.57690048 0.9008150101
-10.17339993 16.37619972 -3.964179993
-0.5881639719 16.6765995 -3.852489948
-18.43630028 29.65390015 -2.215879917
-0.9639300108 27.06270027 -2.369179964
-11.4975996 18.45009995 -3.686280012
-0.6778209805 18.48590088 -3.595700026
-22.3701992 35.86959839 -1.205029964
-1.190269947 32.15499878 -1.686329961
-8.342740059 13.33570004 -4.395150185
-0.5332279801 13.88080025 -4.246920109
-13.09200001 20.9109993 -3.304199934
-0.801872015 20.68580055 -3.27876997
-28.1147995 44.87120056 0.3381969929
-1.558179975 39.8368988 -0.6958879828
-4.384960175 111.1139984 13.65369987
-9.225150108 14.70049953 -4.204050064
-0.6036890149 15.16310024 -4.066140175
-15.32390022 24.40019989 -2.84107995
-0.9408509731 23.42589951 -2.878659964
-2.087169886 51.51919937 0.9000080228
-10.28730011 16.32970047 -3.969490051
-0.6930689812 16.67580032 -3.85323
-18.66160011 29.59989929 -2.222340107
-1.134879947 27.07819939 -2.371119976
-11.62250042 18.39220047 -3.690350056
-0.7941499949 18.48570061 -3.596580029
-22.6427002 35.80350113 -1.209730029
-1.393290043 32.17029953 -1.687549949
-22.01869965 34.78990173 4.594639778
-8.432149887 13.30239964 -4.401370049
-0.6204680204 13.87800026 -4.247159958
-13.25020027 20.8708992 -3.31223011
-0.9325569868 20.69650078 -3.281330109
-28.18659973 44.36389923 0.3330169916
-1.811269999 39.88840103 -0.6969709992
-5.08536005 111.1350021 13.65999985
-9.327589989 14.65839958 -4.209589958
-0.6989910007 15.15989971 -4.066390038
-15.50580025 24.34860039 -2.847860098
-1.089560032 23.45260048 -2.882730007
-2.424770117 51.80289841 0.9052129984
-10.39760017 16.28960037 -3.975620031
-0.7921500206 16.67429924 -3.853899956
-18.875 29.54820061 -2.22852993
-1.295040011 27.06049919 -2.370199919
-3.005409956 61.4518013 11.95930004
-11.76399994 18.35969925 -3.699709892
-0.9104200006 18.48320007 -3.597120047
-22.88489914 35.6882019 -1.212839961
-1.597419977 32.2018013 -1.689700007
-22.07830048 34.40390015 4.559790134
-8.526089668 13.26550007 -4.407649994
-0.7030000091 13.87779999 -4.248310089
-13.38070011 20.80270004 -3.315150023
-1.056769967 20.71839905 -3.285729885
-2.049350023 39.90439987 -0.6974520087
-9.43062973 14.61670017 -4.215479851
-0.7944660187 15.15970039 -4.067599773
-15.69320011 24.30459976 -2.855669975
-1.236189961 23.43199921 -2.881079912
-2.74364996 51.66320038 0.9030550122
-10.52890015 16.26910019 -3.987689972
-0.8972679973 16.67580032 -3.855469942
-19.09300041 29.47960091 -2.234159946
-1.465450048 27.05949974 -2.3708601
-3.899209976 71.53620148 3.754620075
-3.369539976 61.42419815 11.95759964
-11.86740017 18.28129959 -3.699110031
-1.026569963 18.47769928 -3.597249985
-23.16489983 35.63010025 -1.21796
-1.799980044 32.19580078 -1.689939976
-22.09560013 33.95949936 4.517119884
-8.618929863 13.22649956 -4.413430214
-0.7902079821 13.87360001 -4.248439789
-13.51270008 20.72060013 -3.316809893
-1.185439944 20.68530083 -3.281610012
-48.25099945 73.93250275 0.5505759716
-2.303270102 39.94689941 -0.6984339952
-9.529379845 14.57909966 -4.221739769
-0.8843960166 15.15450001 -4.067540169
-15.86019993 24.24620056 -2.861219883
-1.38538003 23.45739937 -2.885230064
-3.075119972 51.76139832 0.9050909877
-10.64570045 16.22509956 -3.994250059
-1.002130032 16.67149925 -3.855870008
-19.33209991 29.44169998 -2.242259979
-1.635689974 27.05380058 -2.371220112
-4.332089901 71.23870087 3.740360022
-12.00430012 18.24020004 -3.707109928
-1.136350036 18.47380066 -3.597719908
-23.41519928 35.55170059 -1.222069979
-1.991080046 32.18569946 -1.690009952
-22.04330063 33.44329834 4.463819981
-8.71257019 13.18830013 -4.419700146
-0.8775529861 13.87129974 -4.249370098
-13.67240047 20.68040085 -3.325340033
-1.316409945 20.6935997 -3.284169912
-48.54380035 73.36990356 0.5441390276
-2.557440042 39.98199844 -0.6993129849
-9.631369591 14.53489971 -4.227300167
-0.9798160195 15.15200043 -4.068449974
-16.04570007 24.19669914 -2.868710041
-1.523489952 23.43250084 -2.883219957
-3.400369883 52.01990128 0.9099479914
-10.75160027 16.16410065 -3.996799946
-1.107300043 16.67149925 -3.85739994
-19.53030014 29.34009933 -2.245630026
-1.806879997 27.06159973 -2.372849941
-3.762290001 56.05350113 2.944240093
-12.13819981 18.19370079 -3.714240074
-1.252699971 18.47069931 -3.598579884
-23.72859955 35.53929901 -1.228929996
-2.197360039 32.23270035 -1.693160057
-22.06119919 33.01699829 4.423289776
-8.80121994 13.15209961 -4.425799847
-0.9646369815 13.86480045 -4.249129772
-13.81989956 20.62059975 -3.330909967
-1.447049975 20.69420052 -3.285640001
-48.8484993 72.83180237 0.5379139781
-2.810110092 39.98669815 -0.6996920109
-9.736399651 14.49479961 -4.234260082
-1.075150013 15.14780045 -4.069039822
-16.23970032 24.15819931 -2.87770009
-1.671399951 23.43239975 -2.884439945
-3.728869915 52.02149963 0.910367012
-4.448019981 61.75189972 9.805879593
-10.87139988 16.13579941 -4.006629944
-1.206390023 16.66720009 -3.857990026
-19.72669983 29.25709915 -2.249910116
-1.977939963 27.06430054 -2.374130011
-4.114019871 56.02349854 2.943969965
-12.26519966 18.13619995 -3.719290018
-1.36906004 18.46689987 -3.599450111
-23.99699974 35.45690155 -1.233469963
-2.400759935 32.23049927 -1.693809986
-22.07229996 32.58850098 4.382349968
-4.65237999 62.16600037 5.454030037
-8.894530296 13.11250019 -4.432050228
-1.047029972 13.86069965 -4.249700069
-13.97099972 20.58099937 -3.339060068
-1.571009994 20.70079994 -3.288120031
-49.1629982 72.36859894 0.5323950052
-3.066760063 40.03950119 -0.7009389997
-9.840359688 14.45259953 -4.240819931
-1.17050004 15.14319992 -4.069709778
-16.42499924 24.10540009 -2.885149956
-1.821069956 23.45330048 -2.888370037
-4.06964016 52.17630005 0.9135059714
-4.832900047 61.6841011 9.799739838
-10.96640015 16.05809975 -4.005400181
-1.311630011 16.66609955 -3.859570026
-19.97710037 29.23060036 -2.259299994
-2.140670061 27.07939911 -2.376529932
-12.37759972 18.05690002 -3.720040083
-1.485790014 18.46699905 -3.601219893
-24.26569939 35.37310028 -1.23803997
-2.605760098 32.24629974 -1.695459962
-22.06900024 32.14680099 4.33949995
-5.034060001 62.02679825 5.444479942
-8.988900185 13.07409954 -4.438899994
-1.133909941 13.85149956 -4.248980045
-14.12580013 20.53009987 -3.346440077
-1.70085001 20.6882 -3.287750006
-49.3185997 71.62539673 0.5247250199
-3.307389975 40.05799866 -0.7015939951
-9.938520432 14.41209984 -4.247059822
-1.260550022 15.13850021 -4.070370197
-16.63069916 24.09869957 -2.897530079
-1.969560027 23.45529938 -2.890079975
-4.411759853 52.32020187 0.9164919853
-5.227350235 61.73500061 9.812840462
-11.0862999 16.01670074 -4.013400078
-1.416700006 16.66209984 -3.860620022
-20.19499969 29.15449905 -2.265019894
-2.312949896 27.0909996 -2.378779888
-12.51159954 18.02210045 -3.729180098
-1.596109986 18.46660042 -3.602920055
-24.53700066 35.31750107 -1.243260026
-2.8004601 32.26929855 -1.697520018
-22.08930016 31.77059937 4.304430008
-9.083200455 13.03499985 -4.4457798
-1.221210003 13.84729958 -4.249979973
-14.30500031 20.51339912 -3.359590054
-1.833160043 20.70369911 -3.291960001
-49.63359833 71.12190247 0.5188459754
-3.566800117 40.12400055 -0.7031279802
-10.04489994 14.37240028 -4.254789829
-1.355909944 15.13319969 -4.071169853
-16.79450035 24.01189995 -2.90124011
-2.109440088 23.45129967 -2.891079903
-4.738599777 52.47510147 0.9196820259
-11.20320034 15.97029972 -4.020339966
-1.522019982 16.65999985 -3.862279892
-20.41810036 29.08449936 -2.271330118
-2.483449936 27.07939911 -2.379080057
-12.64920044 17.97809982 -3.737600088
-1.712700009 18.46260071 -3.604170084
-24.83530045 35.27180099 -1.249349952
-3.007009983 32.29249954 -1.699699998
-22.09569931 31.35759926 4.265210152
-9.172820091 12.99849987 -4.452620029
-1.308069944 13.83810043 -4.249599934
-14.45269966 20.45019913 -3.365339994
-1.962159991 20.68079948 -3.290220022
-50.00059891 70.69719696 0.5135660172
-3.827490091 40.19169998 -0.7047230005
-10.15130043 14.33199978 -4.262549877
-1.451220036 15.12709999 -4.071899891
-16.94540024 23.90640068 -2.90282011
-2.25703001 23.44050026 -2.891439915
-5.071249962 52.47579956 0.9202349782
-11.3270998 15.94470024 -4.031720161
-1.621399999 16.65629959 -3.863569975
-20.66049957 29.06150055 -2.280810118
-2.65440011 27.0720005 -2.379849911
-12.77330017 17.91419983 -3.742079973
-1.829200029 18.45689964 -3.605220079
-25.07449913 35.14030075 -1.252470016
-3.211519957 32.28979874 -1.700590014
-22.09370041 30.94000053 4.225240231
-9.266659737 12.95790005 -4.459410191
-1.390630007 13.83479977 -4.251039982
-14.60079956 20.40180016 -3.372819901
-2.084909916 20.66939926 -3.290309906
-50.18320084 70.06960297 0.506960988
-4.085690022 40.22340012 -0.7057150006
-10.25640011 14.28919983 -4.269839764
-1.546710014 15.12230015 -4.073140144
-17.09900093 23.80459976 -2.904969931
-2.403840065 23.42180061 -2.890929937
-5.421929836 52.6473999 0.9238240123
-11.43809986 15.88860035 -4.036660194
-1.72668004 16.65209961 -3.865060091
-20.8484993 28.93919945 -2.283289909
-2.816090107 27.06620026 -2.380769968
-12.88549995 17.8465004 -3.744940042
-1.939219952 18.45070076 -3.606209993
-25.36840057 35.10960007 -1.258829951
-3.407310009 32.3103981 -1.702700019
-22.0977993 30.56069946 4.189420223
-9.356129646 12.92029953 -4.466300011
-1.473119974 13.8302002 -4.252230167
-14.72850037 20.32430077 -3.375629902
-2.218189955 20.68810081 -3.295449972
-50.73300171 69.90519714 0.5036060214
-4.332640171 40.27600098 -0.7070749998
-10.35519981 14.2475996 -4.27658987
-1.636780024 15.11620045 -4.074039936
-17.2928009 23.77549934 -2.91531992
-2.546119928 23.43779945 -2.894720078
-5.752920151 52.78559875 0.9268299937
-11.54710007 15.84090042 -4.042850018
-1.825860023 16.64520073 -3.865890026
-21.05850029 28.86790085 -2.289230108
-2.982650042 27.10359955 -2.385570049
-13.00650024 17.77779961 -3.748739958
-2.055759907 18.44389915 -3.607340097
-25.70330048 35.10639954 -1.266739964
-3.617019892 32.34880066 -1.705890059
-22.10009956 30.16300011 4.151909828
-9.449020386 12.87749958 -4.472780228
-1.560580015 13.82590008 -4.25383997
-14.93400002 20.33769989 -3.394680023
-2.342740059 20.69070053 -3.298010111
-50.83190155 69.17420197 0.4963119924
-4.577720165 40.30369949 -0.7080259919
-10.45320034 14.20440006 -4.283060074
-1.732259989 15.11019993 -4.07528019
-17.49650002 23.7404995 -2.925990105
-2.697050095 23.45359993 -2.898720026
-6.112989902 52.99570084 0.9311760068
-11.67300034 15.8039999 -4.05313015
-1.930960059 16.63820076 -3.867000103
-21.28149986 28.79190063 -2.295619965
-3.154099941 27.09480095 -2.386490107
-9.048839569 77.49690247 4.089029789
-13.12629986 17.71980095 -3.753969908
-2.166110039 18.43939972 -3.60890007
-25.94540024 34.99940109 -1.270539999
-3.828510046 32.39569855 -1.709599972
-22.33119965 30.08009911 4.15778017
-9.542860031 12.83549976 -4.479800224
-1.647760034 13.81869984 -4.254710197
-15.07610035 20.26300049 -3.399290085
-2.474210024 20.6882 -3.300029993
-4.841050148 40.35910034 -0.7095190287
-10.55140018 14.15069962 -4.287700176
-1.822350025 15.10350037 -4.076320171
-17.64410019 23.64559937 -2.928600073
-2.83513999 23.42860031 -2.897650003
-6.464900017 53.11270142 0.9339280128
-11.79030037 15.75479984 -4.060440063
-2.035909891 16.62929916 -3.867840052
-21.4946003 28.70120049 -2.300970078
-3.330110073 27.12190056 -2.390680075
-9.540510178 77.47850037 4.091139793
-13.28100014 17.69519997 -3.767529964
-2.283279896 18.43639946 -3.611049891
-26.1928997 34.87310028 -1.274160028
-4.02312994 32.39220047 -1.710639954
-9.636429787 12.79269981 -4.486760139
-1.735610008 13.81639957 -4.257309914
-15.21879959 20.18880081 -3.404119968
-2.605590105 20.68370056 -3.301860094
-51.41479874 68.15570068 0.4847590029
-5.104000092 40.40280151 -0.7108389735
-10.65209961 14.10000038 -4.293499947
-1.917559981 15.09449959 -4.077060223
-17.83169937 23.58639908 -2.936619997
-2.987499952 23.45129967 -2.902719975
-6.798289776 53.21689987 0.9364529848
-11.89330006 15.69729996 -4.064740181
-2.140779972 16.6196003 -3.868629932
-21.72750092 28.63540077 -2.308459997
-3.503750086 27.12590027 -2.392920017
-9.726490021 75.09590149 3.96848011
-13.41779995 17.64539909 -3.775969982
-2.400629997 18.43370056 -3.613399982
-26.51329994 34.84170151 -1.281350017
-4.23044014 32.39590073 -1.712210059
-9.726349831 12.75380039 -4.494130135
-1.818099976 13.81000042 -4.258570194
-15.38939953 20.1651001 -3.416719913
-2.736109972 20.67149925 -3.302599907
-52.00600052 68.04589844 0.4818490148
-5.370940208 40.46929932 -0.7125869989
-10.75360012 14.05000019 -4.299680233
-2.012520075 15.08329964 -4.07738018
-18.00970078 23.51320076 -2.943089962
-3.138489962 23.45969963 -2.906150103
-7.156209946 53.34970093 0.9395620227
-12.01259995 15.64960003 -4.072889805
-2.240170002 16.61249924 -3.870009899
-21.96080017 28.5890007 -2.316960096
-3.672940016 27.16600037 -2.398339987
-10.26580048 75.53140259 3.994820118
-13.55529976 17.59560013 -3.784620047
-2.51789999 18.42910004 -3.615540028
-26.77499962 34.73049927 -1.285699964
-4.442560196 32.43180084 -1.715549946
-9.822719574 12.71380043 -4.502520084
-1.90546 13.80280018 -4.259950161
-15.52830029 20.08399963 -3.420779943
-2.861819983 20.6772995 -3.306169987
-52.02489853 67.2397995 0.4741489887
-5.6145401 40.46220016 -0.713037014
-10.85719967 14.00209999 -4.306769848
-2.107769966 15.07409954 -4.078380108
-18.19529915 23.44890022 -2.950839996
-3.288249969 23.45669937 -2.908289909
-7.529669762 53.57699966 0.9443789721
-12.13580036 15.60599995 -4.082359791
-2.345170021 16.60280037 -3.871109962
-22.1651001 28.48270035 -2.321470022
-3.842649937 27.13599968 -2.397769928
-10.55599976 74.35679626 3.935940027
-13.68290043 17.54490089 -3.792229891
-2.635070086 18.42300034 -3.617500067
-27.05290031 34.63869858 -1.290850043
-4.651060104 32.43690109 -1.717329979
-9.916419983 12.66969967 -4.509759903
-1.992949963 13.7961998 -4.26169014
-15.69349957 20.03639984 -3.430730104
-2.996659994 20.69319916 -3.311670065
-53.46490097 68.21109772 0.4788520038
-5.887929916 40.55889893 -0.7153779864
-10.95709991 13.95919991 -4.314380169
-2.197510004 15.0635004 -4.078969955
-18.35969925 23.37310028 -2.956419945
-3.430419922 23.45759964 -2.910860062
-7.878079891 53.60969925 0.94581002
-12.24989986 15.55020046 -4.088870049
-2.450789928 16.59690094 -3.873239994
-22.40589905 28.4218998 -2.329819918
-4.020349979 27.16040039 -2.402120113
-11.03390026 74.36309814 3.939870119
-13.82009983 17.49309921 -3.800899982
-2.746000051 18.41810036 -3.619679928
-27.33790016 34.57860184 -1.296800017
-4.849259853 32.44749832 -1.719380021
-10.01319981 12.62899971 -4.518449783
-2.080029964 13.78629971 -4.262579918
-15.84220028 19.96649933 -3.437069893
-3.125060081 20.6637001 -3.31001997
-53.97330093 67.97570038 0.4750539958
-6.151259899 40.57789993 -0.7163810134
-11.06540012 13.91619968 -4.323460102
-2.2932899 15.05720043 -4.08107996
-18.55739975 23.32159996 -2.966150045
-3.584759951 23.48159981 -2.916569948
-8.287859917 54.16189957 0.956403017
-12.36709976 15.50870037 -4.098169804
-2.556070089 16.58799934 -3.874830008
-22.66150093 28.37750053 -2.339699984
-4.196179867 27.16860008 -2.40512991
-13.93080044 17.40719986 -3.802360058
-2.863120079 18.40979958 -3.621510029
-27.59189987 34.45280075 -1.300860047
-5.068630219 32.51639938 -1.72468996
-10.10340023 12.58870029 -4.526219845
-2.162070036 13.77540016 -4.263110161
-15.99790001 19.91880035 -3.446409941
-3.258980036 20.67000008 -3.314239979
-6.412409782 40.57839966 -0.7170869708
-11.16959953 13.86740017 -4.33096981
-2.38876009 15.04819965 -4.082620144
-18.72039986 23.22540092 -2.970390081
-3.733599901 23.46719933 -2.917639971
-8.581979752 53.82020187 0.9513019919
-12.50469971 15.48069954 -4.112520218
-2.656280041 16.58390045 -3.877490044
-22.85890007 28.27890015 -2.344500065
-4.36315012 27.17959976 -2.408349991
-14.07450008 17.3621006 -3.812920094
-2.980609894 18.40299988 -3.623800039
-27.85289955 34.33430099 -1.305269957
-5.278830051 32.52090073 -1.72665
-10.19589996 12.54160023 -4.533130169
-2.24909997 13.76469994 -4.264090061
-16.17989922 19.88820076 -3.459990025
-3.381200075 20.64800072 -3.313869953
-6.675570011 40.67660141 -0.7195100188
-11.27649975 13.82139969 -4.339620113
-2.485280037 15.04510021 -4.085939884
-18.9375 23.19499969 -2.9832201
-3.885529995 23.4708004 -2.921070099
-8.965029716 54.03680038 0.9561079741
-12.61699963 15.4204998 -4.118569851
-2.761850119 16.5753994 -3.879489899
-23.05089951 28.15279961 -2.347919941
-4.535860062 27.1637001 -2.409420013
-14.20479965 17.31170082 -3.821429968
-3.098500013 18.39769936 -3.626519918
-28.16589928 34.27759933 -1.312129974
-5.490749836 32.5326004 -1.729069948
-9.707670212 57.39569855 5.092790127
-10.28950024 12.49549961 -4.540629864
-2.336570024 13.75640011 -4.26597023
-16.32629967 19.81259918 -3.465960026
-3.517960072 20.66799927 -3.320559978
-6.931509972 40.63679886 -0.7195609808
-11.37609959 13.77589989 -4.347340107
-2.575730085 15.03719997 -4.087870121
-19.09410095 23.10560036 -2.987730026
-4.03429985 23.45389938 -2.922070026
-9.319299698 54.06600189 0.9576410055
-12.71109962 15.33780003 -4.11879015
-2.867899895 16.56900024 -3.882129908
-23.30949974 28.10650063 -2.358129978
-4.711929798 27.16629982 -2.412230015
-14.34829998 17.26429939 -3.831990004
-3.209939957 18.39229965 -3.6291399
-28.45789909 34.21699905 -1.318449974
-5.687940121 32.52370071 -1.730360031
-10.10509968 57.54449844 5.111519814
-10.37829971 12.45199966 -4.547939777
-2.418900013 13.74639988 -4.267280102
-16.46299934 19.73859978 -3.471319914
-3.641449928 20.65189934 -3.321389914
-7.190770149 40.69820023 -0.7213919759
-12.83590031 72.5007019 9.040399551
-11.47669983 13.73089981 -4.355480194
-2.672049999 15.03129959 -4.090760231
-19.29660034 23.05400085 -2.998260021
-4.179329872 23.46279907 -2.926209927
-9.66189003 54.13249969 0.9598190188
-12.81809998 15.28149986 -4.125030041
-2.967720032 16.56040001 -3.884160042
-23.55669975 28.06389999 -2.368060112
-4.8791399 27.17180061 -2.415240049
-14.48069954 17.2147007 -3.841099977
-3.321810007 18.38829994 -3.632179976
-28.77549934 34.18429947 -1.325950027
-5.906899929 32.56850052 -1.734689951
-10.47049999 12.40330029 -4.554979801
-2.506629944 13.73869991 -4.26967001
-16.6508007 19.7105999 -3.486089945
-3.778209925 20.66729927 -3.327620029
-7.474309921 40.80490112 -0.7241020203
-13.15190029 71.6595993 8.94563961
-11.58230019 13.68159962 -4.363780022
-2.762300014 15.02120018 -4.092400074
-19.46509933 22.97699928 -3.004699945
-4.32133007 23.45299911 -2.928139925
-9.750869751 52.71409988 0.9357370138
-12.94139957 15.2329998 -4.134880066
-3.073559999 16.55130005 -3.886499882
-23.82040024 28.01869965 -2.378750086
-5.053919792 27.16290092 -2.417229891
-14.6189003 17.1590004 -3.850300074
-3.43998003 18.38150024 -3.635040045
-29.09119987 34.12179947 -1.332939982
-6.10901022 32.58060074 -1.737229943
-13.68500042 72.84429932 6.484539986
-10.56429958 12.35620022 -4.562829971
-2.594460011 13.73089981 -4.272240162
-16.77770042 19.60960007 -3.488169909
-3.908210039 20.64430046 -3.327800035
-7.746490002 40.84120178 -0.7255949974
-11.69019985 13.63440037 -4.373040199
-2.858360052 15.01259995 -4.094880104
-19.64249992 22.89319992 -3.011409998
-4.473400116 23.45059967 -2.931279898
-10.01609993 52.40729904 0.9313300252
-14.06099987 73.43250275 11.84189987
-13.05620003 15.18470001 -4.143730164
-3.173340082 16.54120064 -3.888479948
-24.0522995 27.95359993 -2.387130022
-5.230239868 27.16049957 -2.419889927
-14.3973999 74.625 3.983050108
-14.77250004 17.12030029 -3.863549948
-3.55817008 18.37380028 -3.63786006
-29.38310051 34.02880096 -1.338850021
-6.317500114 32.56169891 -1.738299966
-14.07240009 72.39700317 6.452459812
-10.65670013 12.31550026 -4.571929932
-2.676870108 13.72019958 -4.273789883
-16.89189911 19.50749969 -3.489059925
-4.033080101 20.63319969 -3.329819918
-8.010390282 40.82960129 -0.72627002
-11.79590034 13.58399963 -4.381529808
-2.953500032 14.99880028 -4.09608984
-19.84569931 22.83799934 -3.022089958
-4.624139786 23.43969917 -2.933500051
-10.32149982 52.22320175 0.9291920066
-14.48929977 73.17700195 11.81509972
-13.17930031 15.13440037 -4.153590202
-3.278899908 16.52949905 -3.890490055
-24.31469917 27.90200043 -2.397670031
-5.396440029 27.15469933 -2.422189951
-14.75500011 74.11129761 3.960230112
-14.88589954 17.0340004 -3.866319895
-3.676100016 18.36389923 -3.640389919
-29.68350029 33.94309998 -1.345160007
-6.536809921 32.59529877 -1.742259979
-14.48209953 72.08339691 6.432489872
-10.74979973 12.26650047 -4.57957983
-2.76432991 13.70960045 -4.275809765
-17.05200005 19.44409943 -3.49819994
-4.166890144 20.62849998 -3.333209991
-8.271249771 40.87379837 -0.7279160023
-12.54650021 61.88980103 7.753689766
-11.89850044 13.53909969 -4.390659809
-3.049839973 14.99059963 -4.098989964
-20.01609993 22.7439003 -3.02782011
-4.773409843 23.42040062 -2.934779882
-10.64379978 52.12979889 0.9287019968
-13.28129959 15.05949974 -4.15692997
-3.384500027 16.51740074 -3.892570019
-24.5951004 27.86840057 -2.409960032
-5.571760178 27.14369965 -2.424279928
-15.11190033 73.48970032 3.932009935
