# .PCD v0.7 - Point Cloud Data file format
VERSION 0.7
FIELDS x y z intensity
SIZE 4 4 4 4
TYPE F F F F
COUNT 1 1 1 1
WIDTH 1371
HEIGHT 1
VIEWPOINT 0 0 0 1 0 0 0
POINTS 1371
DATA ascii
29.064068 -24.335829 -1.98663 46
14.803658 -2.6236069 -4.1123891 88
11.435883 -9.5551023 -4.5560989 68
22.672419 -4.0100021 -2.9568901 93
17.569698 -14.669719 -3.625222 70
44.806335 -7.9086308 0.53657198 94
37.311016 -31.130526 -0.84818399 18
16.273314 -2.86064 -3.9073451 94
12.593694 -10.492671 -4.39222 70
26.085838 -4.57617 -2.4668541 91
20.300455 -16.889706 -3.2424669 67
65.496941 -11.442828 3.1071279 80
17.99267 -3.130517 -3.6529641 98
13.944661 -11.577081 -4.1842742 70
30.749531 -5.3390059 -1.812651 86
23.880236 -19.811678 -2.714643 61
110.49471 -91.604248 7.5220079 10
20.039747 -3.457865 -3.3359871 96
15.593698 -12.9094 -3.9350181 70
29.095703 -24.070061 -1.978994 45
14.810322 -2.5289149 -4.1104221 88
11.479643 -9.46982 -4.5497379 68
22.675278 -3.863739 -2.954993 93
17.627138 -14.530692 -3.6181641 73
44.958439 -7.644515 0.53596097 90
37.277073 -30.707001 -0.843009 16
16.282597 -2.7569189 -3.906064 94
12.640868 -10.398115 -4.3857999 73
26.101896 -4.41012 -2.466789 91
20.357613 -16.733835 -3.2356789 67
65.566231 -11.054391 3.104696 82
52.266315 -42.932037 1.180629 47
18.006546 -3.016494 -3.6526461 98
13.993813 -11.470127 -4.1773152 73
30.761627 -5.1422129 -1.812694 86
23.904419 -19.579479 -2.7033529 61
110.46903 -90.417862 7.4814372 9
20.070068 -3.3333769 -3.338341 96
15.638429 -12.781685 -3.925962 73
29.166605 -23.821629 -1.973597 47
14.822341 -2.440536 -4.1103082 88
11.525882 -9.3868895 -4.5445991 68
22.686369 -3.7191019 -2.9542911 93
17.678141 -14.387139 -3.6100061 74
45.726749 -7.4798498 0.54266798 92
37.287468 -30.324322 -0.83891898 17
16.294485 -2.6537261 -3.905566 94
12.684072 -10.300717 -4.3782482 75
26.124384 -4.2452669 -2.4674339 91
20.417675 -16.56934 -3.2286141 69
52.099083 -42.249264 1.170832 28
18.017975 -2.9085951 -3.652142 98
14.043025 -11.371819 -4.1717882 74
30.77305 -4.956593 -1.812804 86
23.992502 -19.401028 -2.699476 63
98.251694 -15.754965 8.1315813 10
110.35137 -89.169609 7.4353781 17
20.082487 -3.20591 -3.337851 96
15.698733 -12.667282 -3.9210429 74
29.19545 -23.540937 -1.965501 49
14.831331 -2.3463991 -4.109313 88
11.565928 -9.3058939 -4.5385342 68
22.702148 -3.5834839 -2.9544301 93
17.750153 -14.27149 -3.6073539 76
47.881683 -7.5408888 0.56583703 89
37.381786 -30.012785 -0.83678198 17
16.304516 -2.5503039 -3.9047811 94
12.730144 -10.206067 -4.3719292 76
26.138338 -4.0791349 -2.4673741 91
20.470091 -16.399637 -3.2205451 69
52.401928 -41.951839 1.1716909 24
18.027267 -2.7939911 -3.6511829 98
14.093389 -11.266723 -4.165637 75
30.800045 -4.7625961 -1.8138731 86
24.037432 -19.202572 -2.6916621 63
99.098701 -15.288166 8.1901293 13
20.089523 -3.077718 -3.3366029 96
15.751921 -12.547609 -3.9145579 74
29.231081 -23.268116 -1.958019 53
14.84304 -2.252749 -4.1092358 87
11.612381 -9.2236767 -4.5339308 68
22.689043 -3.435447 -2.9508171 94
17.805475 -14.132698 -3.6004801 76
48.020832 -7.2538981 0.56494898 86
37.420609 -29.680485 -0.83369303 14
16.315489 -2.452924 -3.9045451 94
12.773752 -10.109839 -4.3650041 76
26.150658 -3.91291 -2.467262 91
20.533957 -16.240032 -3.2144749 69
52.310596 -41.342079 1.163818 21
18.032684 -2.6789179 -3.6495891 97
14.145018 -11.163048 -4.1600828 75
30.810772 -4.566226 -1.8140579 86
24.072817 -18.984293 -2.682214 63
20.110165 -2.958853 -3.337873 96
15.811216 -12.442201 -3.910876 74
29.322411 -23.041334 -1.9543999 49
14.851024 -2.1585901 -4.108295 87
11.653378 -9.1374168 -4.5274329 68
22.727354 -3.29531 -2.9540119 94
17.883474 -14.012359 -3.5983779 76
48.065487 -6.9520359 0.56296098 83
32.774483 -25.661551 -0.72657597 12
16.32304 -2.3492789 -3.903476 94
12.816309 -10.020405 -4.359149 76
26.135208 -3.7521751 -2.464695 91
20.579554 -16.07851 -3.20662 69
51.895119 -40.515747 1.149205 21
18.038794 -2.570513 -3.648422 97
14.189909 -11.062462 -4.1539059 76
30.815248 -4.3801742 -1.813971 86
24.138195 -18.791073 -2.676291 63
20.120205 -2.8312919 -3.337388 96
15.858192 -12.318618 -3.9032741 74
29.386547 -22.810978 -1.9496191 37
14.860162 -2.0699501 -4.1079998 87
11.694638 -9.0582218 -4.5224991 68
20.357084 -2.8284011 -2.644522 94
17.906786 -13.859918 -3.5864561 75
48.09721 -6.6654849 0.56097603 81
32.745762 -25.308802 -0.722399 210
16.329784 -2.2456141 -3.9023719 93
12.86432 -9.928339 -4.354176 76
26.170305 -3.58954 -2.466928 91
20.633657 -15.913016 -3.1994081 69
65.096832 -8.9055853 3.054569 210
51.981144 -40.059784 1.1455131 15
18.042936 -2.4555371 -3.646862 97
14.243813 -10.961294 -4.1494422 76
30.847305 -4.1871691 -1.815559 86
24.201618 -18.610853 -2.671031 63
20.138607 -2.7049539 -3.3384249 96
15.891461 -12.185137 -3.8925409 74
29.389488 -22.518766 -1.940388 39
14.863139 -1.975247 -4.105999 87
11.736988 -8.9736052 -4.516983 67
19.603477 -2.598253 -2.5452859 210
17.976992 -13.734508 -3.5831621 75
48.164303 -6.366611 0.55928099 78
32.694672 -24.960817 -0.71799201 210
16.333736 -2.1474781 -3.900897 93
12.91048 -9.8351507 -4.3487968 76
26.178936 -3.423285 -2.4667671 91
20.68878 -15.749217 -3.192548 69
65.510895 -8.5432644 3.0686891 210
51.779533 -39.38834 1.135594 20
18.049919 -2.341073 -3.646023 97
14.290944 -10.855283 -4.1432199 76
30.845665 -3.989732 -1.815239 86
24.245079 -18.403017 -2.663013 63
20.151878 -2.5850911 -3.3388469 96
15.93552 -12.069438 -3.885721 74
29.419922 -22.26626 -1.93364 42
14.869514 -1.881094 -4.105103 87
11.781152 -8.8906374 -4.512392 67
20.147409 -2.5416379 -2.6146441 210
18.01993 -13.588856 -3.574631 75
46.42625 -5.8403058 0.536731 75
16.338369 -2.04374 -3.8995979 93
12.95354 -9.7470217 -4.3437419 76
20.73539 -15.59122 -3.1854081 69
51.975822 -39.052933 1.134796 21
18.055717 -2.2265611 -3.6450939 93
14.341692 -10.752399 -4.1382651 76
30.847408 -3.793052 -1.815194 86
24.283617 -18.192923 -2.6546381 63
109.8412 -82.231537 7.1909728 9
20.162418 -2.4577761 -3.3388419 96
15.988896 -11.952521 -3.880347 74
29.424234 -21.98012 -1.924808 55
14.87015 -1.791587 -4.1029239 87
11.82222 -8.8055944 -4.5068412 67
20.00658 -2.396266 -2.595217 96
18.098919 -13.470874 -3.5734401 75
46.0438 -5.4985428 0.52998 74
16.342344 -1.940029 -3.898299 93
13.001046 -9.6554298 -4.3392429 75
22.242615 -2.6325879 -2.094496 87
20.778769 -15.420425 -3.177124 70
48.184021 -5.6859021 2.2497201 66
52.137791 -38.664497 1.133006 26
18.063446 -2.118772 -3.6448071 95
14.385699 -10.652632 -4.1326489 76
30.85594 -3.6083629 -1.815626 86
24.365969 -18.01671 -2.6512129 63
109.72509 -81.073814 7.1498809 12
20.166489 -2.329776 -3.3379021 96
16.058157 -11.84775 -3.8790131 74
37.802792 -4.3538771 -0.89443803 63
29.473656 -21.729855 -1.919072 59
14.87566 -1.697498 -4.1021128 88
11.863433 -8.7273159 -4.5027299 67
19.986279 -2.2736161 -2.5915949 93
18.118853 -13.319361 -3.561707 75
45.866604 -5.2015152 0.52576602 210
16.349361 -1.8367651 -3.8978851 93
13.043745 -9.5605698 -4.3333588 75
22.047558 -2.4691341 -2.0755601 84
20.831612 -15.257606 -3.1704831 73
48.492828 -5.4136348 2.260473 63
52.342346 -38.308807 1.132198 31
18.06913 -2.0044279 -3.644141 95
14.434217 -10.548783 -4.1274648 76
30.880835 -3.4147329 -1.81709 86
24.402687 -17.820856 -2.6436551 63
109.65739 -80.022194 7.1144009 11
20.152311 -2.199919 -3.334079 93
16.093658 -11.718496 -3.8697259 74
37.796757 -4.1127181 -0.895248 56
29.519707 -21.478828 -1.913245 46
149.68042 -16.234072 17.565832 28
14.87608 -1.602926 -4.1000638 88
11.902495 -8.641324 -4.49686 67
19.985039 -2.1463699 -2.590492 90
18.203119 -13.205935 -3.5618911 75
46.034683 -4.9278169 0.525401 74
33.674297 -24.411974 -0.72599298 70
16.353088 -1.738982 -3.896946 93
13.086987 -9.4664392 -4.327879 75
22.038105 -2.327966 -2.074187 83
20.890335 -15.099866 -3.1649179 74
48.482903 -5.1043162 2.256434 61
52.568241 -37.969231 1.131902 26
18.078966 -1.890607 -3.6444609 95
14.479992 -10.4433 -4.1217098 79
30.888224 -3.219234 -1.8175991 86
24.469191 -17.634756 -2.638803 64
109.52033 -78.872383 7.0732169 10
20.179256 -2.0817649 -3.337265 93
16.146101 -11.610701 -3.865701 75
37.805893 -3.8868549 -0.89639997 58
29.573278 -21.234909 -1.9080319 49
149.31589 -15.245955 17.505081 19
14.884444 -1.5092829 -4.1003699 88
11.94283 -8.5565338 -4.4916968 67
19.944714 -2.0153611 -2.584429 88
18.241972 -13.059971 -3.5533659 75
46.012371 -4.633204 0.52287501 74
34.088127 -24.386709 -0.73159701 66
16.360651 -1.635895 -3.896966 93
13.126445 -9.3768358 -4.3224502 75
22.050289 -2.197026 -2.074955 86
20.944542 -14.950631 -3.1596341 74
48.559021 -4.8211589 2.256675 60
52.602062 -37.492992 1.127535 24
18.083397 -1.77628 -3.643837 95
14.529229 -10.34066 -4.1171489 79
30.917662 -3.026057 -1.819481 86
24.517702 -17.436708 -2.6321681 64
109.48479 -77.806793 7.0392079 12
20.17342 -1.953142 -3.3350861 94
16.187777 -11.487054 -3.8583219 75
37.812038 -3.647547 -0.89757299 61
29.602383 -20.990698 -1.90184 51
149.22136 -14.342104 17.477673 18
14.886559 -1.420303 -4.099216 88
11.98321 -8.4720325 -4.4867749 69
19.947655 -1.889122 -2.58408 90
18.27215 -12.908698 -3.543375 75
46.364876 -4.374609 0.52460903 70
16.362305 -1.532289 -3.895736 93
13.167616 -9.2818499 -4.3167181 75
22.857685 -2.1325159 -2.1506009 210
20.970076 -14.770847 -3.1494229 74
52.695709 -37.090153 1.124805 25
18.090117 -1.668617 -3.643894 95
14.567915 -10.238503 -4.1108222 79
30.955389 -2.8444021 -1.821911 86
24.567497 -17.240717 -2.6258321 64
109.37936 -76.70211 7.0013061 12
20.148838 -1.823052 -3.3299451 94
16.234692 -11.367654 -3.8524041 75
37.848759 -3.4112079 -0.89951199 63
29.649786 -20.745584 -1.8964731 51
149.34926 -13.407899 17.476028 17
14.891822 -1.326441 -4.098989 88
12.020561 -8.3918991 -4.4820352 69
19.987316 -1.773273 -2.588624 90
18.335138 -12.790771 -3.5408089 75
48.428684 -4.279552 0.54573798 69
16.371176 -1.429414 -3.8963821 93
13.209846 -9.1879234 -4.3115511 75
23.030409 -2.0027499 -2.1666081 91
21.029518 -14.615896 -3.144496 74
65.300514 -5.6556401 3.025646 210
53.026867 -36.82719 1.126912 22
18.095739 -1.554534 -3.643795 95
14.611314 -10.132453 -4.1050229 79
30.956255 -2.6484461 -1.822258 86
24.625233 -17.064041 -2.621134 66
109.36932 -75.730911 6.9717751 14
20.191441 -1.699072 -3.3360419 94
16.273113 -11.242845 -3.844682 75
37.866486 -3.173084 -0.901039 66
29.696211 -20.501348 -1.891166 51
149.25961 -12.454987 17.449615 16
14.896681 -1.232584 -4.098814 88
12.062007 -8.3085995 -4.4779348 69
20.000309 -1.64784 -2.5897789 93
18.379868 -12.651034 -3.5340259 75
48.380444 -3.9690981 0.54286098 67
16.369589 -1.331445 -3.894763 93
13.253502 -9.0952625 -4.3070621 75
22.202152 -1.790244 -2.0885389 88
21.073933 -14.451243 -3.1374979 74
65.746208 -5.2782679 3.0419171 210
53.318588 -36.535343 1.128211 11
18.099762 -1.440377 -3.643522 96
14.652826 -10.025489 -4.098907 79
30.934889 -2.450928 -1.82137 86
24.662094 -16.861212 -2.613729 67
109.24388 -74.632942 6.9337502 13
20.209141 -1.5798481 -3.3381979 97
16.321993 -11.134109 -3.840553 77
37.894543 -2.949095 -0.90278798 68
29.714659 -20.239584 -1.884205 52
14.901999 -1.138798 -4.0989299 88
12.105508 -8.2268953 -4.4748058 69
20.132458 -1.531437 -2.6064661 210
18.416382 -12.506366 -3.5258679 75
48.383999 -3.663491 0.54058701 66
16.379738 -1.228724 -3.8960159 93
13.292996 -9.0068045 -4.3024521 75
22.258261 -1.661888 -2.0937541 86
21.130421 -14.306372 -3.133213 74
18.103678 -1.326275 -3.643373 96
14.689731 -9.9232769 -4.0926862 80
30.933065 -2.266156 -1.821682 86
24.715786 -16.683565 -2.608881 67
86.311852 -6.2929149 7.0222602 44
109.14395 -73.61853 6.8995581 10
20.215719 -1.459721 -3.3386359 97
16.36726 -11.014937 -3.8348429 77
37.926346 -2.7119429 -0.90472901 69
29.751209 -20.007061 -1.878961 54
14.904305 -1.050053 -4.098443 88
12.143194 -8.1475887 -4.4707861 69
20.248909 -1.419494 -2.6212361 210
18.451817 -12.371079 -3.5185349 75
48.408417 -3.3765581 0.53868902 65
33.759796 -22.617283 -0.70929998 210
16.379869 -1.13103 -3.8950939 93
13.332222 -8.9184074 -4.2979431 75
22.219379 -1.526455 -2.0901079 85
21.190769 -14.164571 -3.129643 74
18.107679 -1.2185839 -3.643429 96
14.731108 -9.8170004 -4.086947 80
30.961206 -2.072726 -1.823856 86
24.769564 -16.494274 -2.6035669 67
86.472939 -5.7586889 7.0285811 47
109.10211 -72.597115 6.8679409 15
20.21858 -1.332285 -3.338553 97
16.434284 -10.918913 -3.8352981 77
37.934139 -2.486336 -0.90606803 69
29.805094 -19.787464 -1.874915 55
14.912534 -0.95651001 -4.099678 88
12.184273 -8.0645943 -4.467165 69
20.392403 -1.300849 -2.6395881 98
18.506495 -12.239895 -3.5142269 75
48.43396 -3.07267 0.53669101 64
33.556759 -22.177061 -0.70209301 210
16.389404 -1.028263 -3.896503 93
13.37672 -8.8270245 -4.294323 75
21.421457 -1.336465 -2.015142 82
21.228855 -13.997851 -3.122216 74
65.936157 -4.09059 3.038671 13
18.111385 -1.110914 -3.6435549 96
14.774242 -9.7122488 -4.0819039 80
30.963032 -1.877509 -1.824555 86
24.839081 -16.316227 -2.6000459 67
86.476196 -5.2133722 7.0223331 63
109.00724 -71.549927 6.8335338 14
20.227562 -1.205282 -3.3396151 97
16.456831 -10.785466 -3.8246689 77
37.970608 -2.2492211 -0.90819901 69
29.840721 -19.542103 -1.869395 55
14.915934 -0.86788398 -4.099792 87
12.217466 -7.9827099 -4.4618888 69
20.29879 -1.1739759 -2.6273589 98
18.563646 -12.110725 -3.510561 75
48.481583 -2.769964 0.53495198 62
33.516308 -21.849007 -0.69836003 210
16.388996 -0.924896 -3.895705 93
13.414842 -8.7316866 -4.2888641 75
22.307106 -1.251067 -2.0986371 79
21.262726 -13.82929 -3.114357 74
66.41478 -3.7015381 3.056761 14
18.114332 -0.99689299 -3.6436341 96
14.813513 -9.6126595 -4.076921 80
30.978228 -1.69399 -1.8260781 86
24.85854 -16.118664 -2.592026 67
20.233477 -1.078099 -3.3403039 97
16.503052 -10.668134 -3.819757 79
37.897339 -2.0060151 -0.90774399 69
29.878868 -19.299932 -1.864152 55
14.920347 -0.77410901 -4.100297 87
12.252529 -7.8962169 -4.4564872 69
22.842791 -1.177153 -2.9566231 96
18.562201 -11.953355 -3.4968109 75
48.604889 -2.487735 0.53418303 61
33.543388 -21.584112 -0.69624299 210
16.39587 -0.82197303 -3.8967941 93
13.456612 -8.6389914 -4.28478 75
26.297945 -1.309191 -2.474407 210
21.30661 -13.668101 -3.108144 74
18.119926 -0.88304299 -3.644392 96
14.854768 -9.507329 -4.071754 80
30.978249 -1.498832 -1.826817 86
24.916052 -15.934481 -2.5875311 67
20.25555 -0.958772 -3.343801 96
16.545992 -10.549081 -3.8142791 79
37.950703 -1.769797 -0.91035903 72
29.905779 -19.052084 -1.858325 55
14.923155 -0.68026698 -4.100523 87
12.283647 -7.8074751 -4.4498739 70
22.800846 -1.031394 -2.9512949 96
18.616909 -11.823769 -3.493053 75
48.512432 -2.1774859 0.53093302 58
33.573479 -21.306377 -0.69407499 210
16.393616 -0.72436202 -3.8958859 92
13.489376 -8.5474148 -4.278986 75
26.291086 -1.152492 -2.4741499 78
21.368019 -13.518744 -3.10465 74
51.833298 -32.767654 1.070383 10
18.121859 -0.76903701 -3.6445589 95
14.895447 -9.4019623 -4.0666318 80
30.998081 -1.304626 -1.8288 86
24.963839 -15.744919 -2.5821691 69
108.81674 -68.578621 6.7408938 12
20.236153 -0.83045697 -3.3405731 96
16.583925 -10.435373 -3.808682 79
37.975758 -1.545182 -0.91226101 73
29.915276 -18.809502 -1.8519469 55
14.927178 -0.58649099 -4.1012478 86
12.316032 -7.7198439 -4.4439468 70
22.854401 -0.88996297 -2.9584489 96
18.697208 -11.710556 -3.4942451 75
48.510544 -1.872069 0.52869499 57
33.734463 -21.112394 -0.69464701 210
16.396723 -0.621301 -3.8963821 92
13.527936 -8.4531927 -4.2742848 75
26.323935 -0.98825997 -2.477751 81
21.409847 -13.36797 -3.0991471 74
52.067589 -32.484921 1.071221 11
18.124577 -0.66143101 -3.645031 95
14.93319 -9.2950935 -4.0609112 80
30.976944 -1.108806 -1.828441 86
24.979498 -15.536274 -2.5736411 71
108.73658 -67.577286 6.7094922 11
20.24025 -0.703269 -3.341357 96
16.643333 -10.32735 -3.807348 80
37.982918 -1.306483 -0.91384798 73
29.966694 -18.580139 -1.8478661 55
14.925179 -0.49772799 -4.1004901 86
12.342787 -7.6349702 -4.4371748 72
22.834146 -0.75349802 -2.956145 95
18.716749 -11.559701 -3.4842539 75
48.617409 -1.570336 0.52765399 57
34.10828 -21.049261 -0.69960803 85
110.7433 -3.5382969 16.812181 210
16.39922 -0.51823199 -3.896889 92
13.562279 -8.3566275 -4.2684622 75
26.321938 -0.82260299 -2.478173 83
21.444918 -13.203323 -3.092154 77
51.89793 -31.927822 1.0635819 13
18.126301 -0.54747599 -3.6454401 95
14.966778 -9.1932268 -4.0551381 80
31.02387 -0.92618799 -1.832119 86
25.014042 -15.352656 -2.5677681 72
108.6731 -66.594963 6.6796241 21
20.25568 -0.57640803 -3.344147 96
16.655363 -10.190434 -3.795377 80
37.96516 -1.067096 -0.91487497 73
30.006462 -18.34479 -1.843174 57
14.930804 -0.40401599 -4.1019731 86
12.375781 -7.5482812 -4.4318981 73
22.85054 -0.61033601 -2.95872 95
18.750391 -11.427328 -3.4778309 75
48.566738 -1.280249 0.52503902 56
34.568405 -21.050989 -0.70647103 87
110.69246 -2.879256 16.796919 210
16.401979 -0.41517901 -3.897615 92
13.601779 -8.2635098 -4.2644682 75
26.321854 -0.65708399 -2.4788749 85
21.487648 -13.044158 -3.086436 77
52.211216 -31.67008 1.065904 13
18.128611 -0.433557 -3.6461129 95
15.004841 -9.0872545 -4.049901 80
31.018433 -0.73099101 -1.832834 85
25.035603 -15.150159 -2.560159 74
108.56615 -65.646446 6.6489892 17
20.239534 -0.45576599 -3.3418331 96
16.69099 -10.068649 -3.789005 81
38.027298 -0.82976002 -0.91786897 73
30.037476 -18.105467 -1.838055 58
14.926085 -0.31005099 -4.1007781 86
12.406125 -7.460248 -4.4258909 73
22.853174 -0.46673599 -2.9596331 95
18.815403 -11.305436 -3.4766459 77
48.625393 -0.97610801 0.52349901 55
35.034504 -21.034214 -0.71328098 85
110.71022 -2.1837399 16.792261 94
16.406765 -0.317891 -3.8989611 92
13.632421 -8.1717672 -4.2587972 75
26.324604 -0.50086302 -2.479897 85
21.534784 -12.888303 -3.0815139 78
66.525017 -1.219274 3.040592 9
52.010452 -31.102964 1.057794 13
18.128748 -0.31960401 -3.6464951 95
15.041936 -8.9810333 -4.0446019 80
31.02058 -0.53605199 -1.834071 85
25.122812 -14.988091 -2.559397 75
108.46381 -64.65741 6.6177101 17
20.27191 -0.32907501 -3.347683 96
16.742043 -9.964426 -3.7871039 81
38.050842 -0.60439497 -0.91988802 73
30.094061 -17.896975 -1.834987 58
14.929815 -0.21629301 -4.1020679 86
12.440575 -7.3749309 -4.4215622 73
22.849718 -0.323053 -2.9598761 95
18.836241 -11.157479 -3.467474 77
48.676285 -0.67119801 0.52188802 54
35.52742 -21.027601 -0.720613 85
110.75613 -1.4885499 16.792521 96
16.408228 -0.21479601 -3.8996811 92
13.66995 -8.0779476 -4.25458 75
26.328251 -0.33546501 -2.4811471 85
21.574795 -12.738977 -3.0763681 78
66.640068 -0.82583803 3.0428431 14
51.799526 -30.560986 1.049798 13
18.132917 -0.20572101 -3.647835 95
15.081929 -8.8768463 -4.0402789 80
31.034954 -0.34126201 -1.836108 85
25.158125 -14.795621 -2.553473 75
108.45728 -63.73333 6.5927482 15
20.268227 -0.201644 -3.347713 96
16.764666 -9.8357716 -3.778167 83
38.079037 -0.365545 -0.92214501 73
30.114582 -17.653994 -1.829438 59
14.924748 -0.12764201 -4.1010761 86
12.474798 -7.2896838 -4.4173589 73
22.854073 -0.1795 -2.961251 95
18.896976 -11.033655 -3.4658239 78
48.69593 -0.365468 0.51995301 43
36.051548 -21.033077 -0.728549 85
61.956219 -0.44336 9.3902359 96
16.411854 -0.111714 -3.9010711 92
13.704981 -7.9828959 -4.2497878 78
26.315147 -0.169939 -2.4809179 88
21.599154 -12.571008 -3.0685179 78
66.870003 -0.408494 3.050257 15
51.82745 -30.140083 1.046505 10
18.13608 -0.098127 -3.6490769 95
15.117257 -8.7772741 -4.035718 81
31.063263 -0.15722799 -1.838974 85
25.200562 -14.608256 -2.548414 75
20.251604 -0.074226998 -3.3457389 96
16.811195 -9.7216043 -3.7748129 83
38.085186 -0.126298 -0.92391098 73
30.156008 -17.424618 -1.825268 59
14.924883 -0.033863999 -4.101696 86
12.505085 -7.208179 -4.4128599 73
22.834856 -0.043841001 -2.959635 95
18.927013 -10.901107 -3.459408 78
48.762299 -0.076598004 0.51864803 48
36.633766 -21.082371 -0.737773 83
61.972054 -0.075715996 9.3897724 98
16.408035 -0.014319 -3.900806 92
13.734281 -7.8911839 -4.244278 80
26.346548 -0.013796 -2.4849229 90
21.637356 -12.4119 -3.0628049 78
66.86377 0.011667 3.0470009 15
51.355549 -29.435413 1.033221 10
18.141193 0.015830001 -3.6508911 95
15.156878 -8.6734018 -4.0316682 81
31.052444 0.037935998 -1.839668 85
25.23262 -14.427474 -2.542953 75
74.353806 -42.479488 4.4878311 11
20.264845 0.045979001 -3.348779 96
16.845108 -9.6082802 -3.769558 83
38.12096 0.099799 -0.92634398 76
30.225325 -17.226242 -1.823244 59
14.921302 0.059898 -4.101459 86
12.539734 -7.1235609 -4.409205 73
22.874643 0.099808998 -2.965836 95
18.965439 -10.765115 -3.454 81
48.777073 0.229856 0.51668602 45
37.097252 -21.03993 -0.74443001 79
62.008873 0.31385499 9.3926716 98
16.409639 0.088785 -3.902019 92
13.766977 -7.7953272 -4.2391629 80
26.351255 0.15177301 -2.4865699 90
21.658491 -12.253786 -3.05545 78
67.082108 0.40978301 3.05424 210
51.304409 -29.003004 1.028712 10
18.142694 0.123494 -3.6520691 95
15.191879 -8.567173 -4.0265799 81
31.084852 0.233292 -1.8430001 85
25.271917 -14.239995 -2.5378461 75
74.953178 -42.199486 4.507915 27
20.252447 0.173204 -3.347764 96
16.932522 -9.5176382 -3.7756629 83
38.117195 0.339295 -0.92795002 78
30.239599 -16.983555 -1.817632 59
14.923672 0.148471 -4.1029658 86
12.568163 -7.0413918 -4.4044309 73
22.862486 0.235432 -2.965354 95
19.010513 -10.633328 -3.4499731 82
48.796951 0.53657001 0.51479298 43
37.827568 -21.141113 -0.756405 76
61.952759 0.70285898 9.3818579 210
60.936386 -34.02829 8.5695953 34
16.404936 0.191842 -3.9018869 92
13.798486 -7.6990762 -4.2338848 80
26.34734 0.31730899 -2.487505 90
21.675659 -12.084346 -3.0471001 78
66.226746 0.82071 3.0125711 56
50.830524 -28.315153 1.015622 9
18.146719 0.237553 -3.653949 95
15.226883 -8.468215 -4.0224681 81
31.064674 0.417503 -1.843207 85
25.315666 -14.06738 -2.533812 75
75.12529 -41.676918 4.5024281 17
20.272198 0.30076501 -3.3521969 96
15.343923 -8.4982758 -3.4094591 79
38.144142 0.57923698 -0.93034399 80
30.260214 -16.745905 -1.812511 59
14.921957 0.242227 -4.10356 86
12.599893 -6.9555149 -4.4001479 73
22.859262 0.37905499 -2.9662111 95
19.043886 -10.504119 -3.4446559 82
48.883732 0.827663 0.51373202 42
37.977493 -20.930126 -0.75690597 72
61.965305 1.070787 9.3819075 210
60.952309 -33.53653 8.5420313 34
16.406612 0.29497099 -3.90343 92
13.826451 -7.6011562 -4.2277279 80
26.350548 0.482952 -2.4892139 90
21.740419 -11.942018 -3.0455959 77
67.286751 1.256724 3.0581341 55
18.145243 0.351574 -3.6548669 95
15.25756 -8.3601942 -4.0166149 81
31.090635 0.61325401 -1.846308 85
25.357986 -13.883093 -2.5292661 75
75.165939 -41.118057 4.4901609 11
20.292456 0.42152199 -3.356776 96
15.120737 -8.2509422 -3.34828 76
38.184258 0.81984699 -0.93310499 80
30.294416 -16.517054 -1.8083071 59
14.925602 0.33610201 -4.105792 86
12.627627 -6.867662 -4.3946781 73
22.873688 0.52306998 -2.9694791 95
19.057644 -10.356071 -3.435307 82
48.911602 1.135581 0.51194501 39
37.968212 -20.615059 -0.754125 68
61.970551 1.4604141 9.381093 108
60.922764 -33.050835 8.5102549 27
16.402811 0.39228201 -3.903748 93
13.853202 -7.5091581 -4.222208 80
26.341867 0.63918 -2.489815 90
21.774584 -11.783298 -3.0399499 77
67.237282 1.678467 3.053345 10
51.156555 -27.660248 1.015111 12
18.143545 0.46559799 -3.6558869 95
15.293274 -8.25525 -4.0122828 82
31.062698 0.80797899 -1.846285 85
25.403616 -13.701324 -2.5251811 75
73.18573 -39.439415 4.3569808 10
20.269032 0.54846299 -3.354331 96
15.131747 -8.1407948 -3.339962 73
38.158733 1.045873 -0.93419999 80
30.326443 -16.301809 -1.804413 59
14.92331 0.42987901 -4.106555 86
12.658675 -6.7818351 -4.3905659 73
22.882053 0.66713101 -2.9720819 95
19.128492 -10.239421 -3.436413 82
48.941006 1.443984 0.51018602 38
37.939426 -20.291821 -0.75100601 65
60.969738 -32.582169 8.4880524 17
16.4041 0.49545801 -3.9055021 93
13.883834 -7.4132771 -4.2172642 80
26.330185 0.80445898 -2.4903131 90
21.808205 -11.634717 -3.034951 77
67.402367 2.082875 3.0585411 15
51.262924 -27.32588 1.013986 13
18.140556 0.579597 -3.6567941 95
15.326122 -8.149045 -4.0073891 82
31.055174 1.003075 -1.847549 85
25.405693 -13.497075 -2.5169079 75
73.846588 -39.198826 4.3815751 11
20.291613 0.676687 -3.3596361 96
15.118834 -8.0117693 -3.3259349 69
38.175407 1.286418 -0.93646997 81
30.396727 -16.09424 -1.802542 61
14.923481 0.51853102 -4.1080689 86
12.684625 -6.6991658 -4.3857012 73
22.862469 0.802369 -2.9710801 95
49.022919 1.75475 0.50898403 35
37.977024 -20.006075 -0.74924701 62
60.951962 -32.081966 8.4573469 17
16.398436 0.59843701 -3.905757 93
13.910603 -7.3156228 -4.21135 80
26.337364 0.97034901 -2.492696 90
21.837666 -11.474757 -3.0289581 79
67.475243 2.5095799 3.0595181 19
51.09074 -26.82324 1.0072269 14
18.139437 0.687334 -3.658128 95
15.357489 -8.0491915 -4.0030298 82
31.065548 1.187986 -1.8498549 85
25.45945 -13.33252 -2.5143509 75
73.448944 -38.398182 4.3435798 11
20.296629 0.80455202 -3.36217 96
15.109997 -7.8858891 -3.313025 66
38.176441 1.526649 -0.93839902 81
30.404379 -15.854506 -1.797053 63
61.192471 -31.881941 6.0367031 210
14.916279 0.61213702 -4.1077991 85
12.716689 -6.6142492 -4.3823318 76
22.86145 0.94618702 -2.972697 95
49.020443 2.0459919 0.507029 35
37.956768 -19.708553 -0.74652702 60
16.39539 0.70150298 -3.906791 93
13.943226 -7.2213092 -4.207407 80
26.313736 1.135077 -2.492264 90
21.894836 -11.329821 -3.0269539 79
67.869377 2.95137 3.07516 10
51.177082 -26.459726 1.005632 13
18.13184 0.80116498 -3.65839 95
15.392371 -7.9445958 -3.999032 84
31.07375 1.383877 -1.852206 85
25.472681 -13.136174 -2.507457 78
20.256708 0.92339402 -3.3572869 96
15.112864 -7.7669582 -3.3028891 63
38.208183 1.768435 -0.941127 81
30.457102 -15.639388 -1.7943259 66
61.810139 -31.711571 6.0778599 210
14.912589 0.70586801 -4.1086602 85
12.745029 -6.527576 -4.3778782 76
22.85438 1.0897779 -2.9736471 96
49.080383 2.357497 0.50561899 35
38.034435 -19.446455 -0.74563599 58
16.389177 0.79869598 -3.9071159 93
13.971718 -7.131237 -4.2031608 80
26.329155 1.292316 -2.495523 90
21.929871 -11.173828 -3.0220311 79
66.266373 3.2989321 3.0004621 63
50.865654 -25.894987 0.99629498 15
18.128807 0.91519302 -3.6597199 95
15.427598 -7.840415 -3.995306 84
31.077795 1.57977 -1.854387 85
25.510511 -12.953421 -2.5031199 79
20.258438 1.0510629 -3.3595381 96
15.136967 -7.6661391 -3.298156 210
38.232113 1.996967 -0.94359499 82
30.442307 -15.404202 -1.788038 66
61.30793 -30.968866 6.0092249 210
14.903609 0.79932398 -4.1082268 85
12.776419 -6.4426432 -4.3746691 76
22.87944 1.2351 -2.9789 96
16.266092 -8.1952267 -2.884804 66
49.153511 2.670661 0.50435197 40
38.050163 -19.153885 -0.74357098 56
16.383505 0.90163797 -3.9078281 93
13.999559 -7.034924 -4.1981559 80
26.298273 1.456488 -2.4945979 90
21.963013 -11.02704 -3.0175281 79
66.068169 3.682214 2.9896431 210
50.748215 -25.457144 0.99101901 15
61.594017 3.454421 11.540547 210
18.121731 1.029026 -3.6603789 95
15.461272 -7.7356801 -3.9913609 84
31.074724 1.775432 -1.856222 85
25.55015 -12.77226 -2.4990849 79
66.870285 3.844003 5.374289 210
20.277828 1.179864 -3.364856 96
15.1545 -7.5557561 -3.2915671 210
38.262043 2.239676 -0.94636601 82
30.478262 -15.182621 -1.784511 68
14.899591 0.88780802 -4.1091981 85
12.806006 -6.356957 -4.371037 76
22.841515 1.377039 -2.976073 96
16.274992 -8.0718985 -2.877331 63
49.187832 2.982604 0.50269598 40
38.020153 -18.840298 -0.74065602 54
16.376202 1.00448 -3.9083059 93
14.029314 -6.9398141 -4.1939201 80
26.311779 1.623125 -2.4979861 90
17.124281 -8.4633474 -2.345376 79
66.137917 4.1030998 2.990952 210
50.88773 -25.128185 0.99063998 15
61.588863 3.8424649 11.540988 210
18.114309 1.136481 -3.6609869 95
15.491951 -7.636425 -3.9875121 84
31.095709 1.961823 -1.859454 85
25.596899 -12.595237 -2.495868 79
66.818237 4.2623882 5.369144 210
74.114296 -36.43663 4.3281841 27
20.249096 1.3059 -3.362324 96
15.181228 -7.4503541 -3.2871399 210
38.264709 2.4811721 -0.94850701 82
30.506367 -14.958122 -1.780618 68
14.893379 0.98138398 -4.1098461 85
12.832329 -6.2753892 -4.3672342 76
22.856586 1.514125 -2.9801431 96
16.265858 -7.9474521 -2.8673279 60
49.267544 3.2809811 0.50162399 33
38.042839 -18.571175 -0.73893797 52
63.540699 -30.963421 8.6788397 210
16.369085 1.107321 -3.9089849 93
14.057443 -6.8441291 -4.1893911 83
26.325394 1.790068 -2.501488 90
17.155153 -8.3449011 -2.342376 77
50.843327 -24.710131 0.98673397 16
61.507675 4.2255259 11.527629 81
18.105957 1.250214 -3.6616731 95
15.525483 -7.532074 -3.9838829 84
31.090855 2.1577251 -1.861335 85
25.59923 -12.408241 -2.4888721 79
75.146538 -36.392002 4.3757768 26
20.250074 1.426677 -3.364723 96
15.217623 -7.3499351 -3.284956 210
38.337132 2.7278619 -0.95242399 82
30.532259 -14.733584 -1.776691 68
14.890486 1.075199 -4.1115742 85
12.864302 -6.1911712 -4.36479 76
22.846489 1.657696 -2.981174 96
49.395573 3.6013801 0.50093699 32
38.010914 -18.260746 -0.73607498 51
63.544533 -30.500006 8.6544905 48
16.362701 1.2044719 -3.9098511 93
14.082397 -6.7532001 -4.1848111 83
26.309547 1.945902 -2.5021629 90
51.288265 -24.529209 0.99235803 11
61.548782 4.6170702 11.53764 81
18.10277 1.364331 -3.6635511 95
15.553679 -7.4253912 -3.979068 84
31.103428 2.355056 -1.864338 85
25.623968 -12.222007 -2.483762 79
76.237389 -36.330711 4.4259171 11
20.230761 1.5531189 -3.3640139 96
15.262978 -7.260458 -3.285388 73
38.358192 2.958235 -0.95499301 82
30.602804 -14.544374 -1.775743 68
14.885798 1.168923 -4.1129718 85
12.893089 -6.1055522 -4.361455 76
22.860395 1.803166 -2.98546 96
49.422222 3.9156499 0.499228 30
38.045979 -17.984253 -0.73455101 49
16.355198 1.307289 -3.9107411 93
14.111789 -6.6585631 -4.1810298 83
26.303085 2.1116741 -2.503958 90
18.09333 1.478004 -3.6643109 95
15.58449 -7.32022 -3.975105 84
31.156176 2.5560279 -1.869832 85
25.671227 -12.047144 -2.4809561 79
20.23082 1.6810499 -3.3666611 96
15.326876 -7.173111 -3.289376 73
38.358067 3.2007899 -0.95719701 82
30.626799 -14.320577 -1.771879 68
155.67387 13.04493 18.015955 70
14.882698 1.2575819 -4.11481 84
12.921039 -6.01969 -4.3580289 76
22.856585 1.947444 -2.987556 96
49.583477 4.242084 0.49888501 27
38.141758 -17.737192 -0.73423398 48
63.519337 -29.51165 8.5998669 50
16.351025 1.410401 -3.912585 93
14.14397 -6.565413 -4.1782589 83
26.327579 2.2802141 -2.508806 90
17.152571 -7.9546828 -2.3215301 65
18.089996 1.58585 -3.6662941 95
15.607964 -7.2185049 -3.9700961 84
31.141546 2.740962 -1.87123 85
25.696032 -11.862352 -2.4761009 79
20.239281 1.809867 -3.3708451 96
15.384077 -7.0823932 -3.292037 210
38.407749 3.44807 -0.96069199 82
30.64118 -14.093369 -1.767553 68
156.22446 14.080081 18.082371 66
14.875099 1.351122 -4.1157241 83
12.945463 -5.9378319 -4.3543048 76
22.8428 2.082876 -2.9883151 96
49.687565 4.5481529 0.49807701 27
38.108604 -17.431395 -0.73147303 46
63.536392 -29.035597 8.5773067 50
16.345974 1.513492 -3.914376 92
14.172071 -6.4705381 -4.174468 83
26.305613 2.444927 -2.50933 90
17.209833 -7.8502302 -2.3225579 61
18.08149 1.699651 -3.6675291 95
15.635341 -7.112258 -3.965615 84
31.140474 2.9381559 -1.873652 85
25.701672 -11.680439 -2.4699221 80
20.21538 1.928715 -3.3696101 96
15.454367 -6.997407 -3.2976041 75
38.478031 3.6982329 -0.96475297 82
30.687044 -13.881533 -1.765132 68
14.868224 1.444743 -4.117002 82
12.972266 -5.8517532 -4.3508682 76
22.842968 2.2276969 -2.991169 95
49.800312 4.874186 0.497251 27
38.12056 -17.164059 -0.72973502 34
63.490154 -28.560251 8.5480347 48
16.341715 1.610958 -3.9163351 92
14.19886 -6.3812208 -4.1711321 83
26.306208 2.602524 -2.511956 90
17.229668 -7.7288671 -2.3186359 57
62.22208 6.1996179 2.805666 210
18.077143 1.813898 -3.6697559 95
15.66339 -7.0065742 -3.9614849 84
31.121313 3.13375 -1.875064 85
25.766064 -11.514926 -2.4691091 80
20.218811 2.0573161 -3.373224 96
15.516247 -6.9147701 -3.3019941 77
38.48217 3.9292331 -0.96707398 82
30.70042 -13.66871 -1.761205 68
14.861059 1.538362 -4.1183658 82
12.995016 -5.7640271 -4.3462648 76
22.833586 2.3717041 -2.9928949 95
16.4601 -7.2941132 -2.851532 13
49.835159 5.1939182 0.49565399 33
38.150513 -16.890051 -0.72826201 34
16.337324 1.714238 -3.9185929 92
14.225594 -6.2861018 -4.1673002 82
26.325769 2.771594 -2.5166481 90
17.26519 -7.622057 -2.3172879 54
62.076042 6.5573158 2.7981169 210
18.066097 1.927519 -3.6707709 95
15.691601 -6.9012008 -3.9575739 84
31.137564 3.3331411 -1.87869 85
25.767328 -11.321796 -2.462364 80
71.412422 -31.347864 4.087276 18
20.242685 2.1883349 -3.380393 96
15.858097 -6.9480181 -3.365386 80
38.495697 4.1751709 -0.969805 81
30.7659 -13.466879 -1.760072 71
14.851075 1.626456 -4.1189132 82
13.020703 -5.677784 -4.3428388 76
22.837156 2.51721 -2.9964421 95
16.529305 -7.2008719 -2.8556261 57
49.906971 5.5185952 0.494432 38
38.174229 -16.614477 -0.72670799 34
16.328279 1.817082 -3.9198911 92
14.250725 -6.1904778 -4.1631851 82
26.3083 2.937 -2.5179069 90
17.313736 -7.5138588 -2.3174219 51
18.064264 2.035809 -3.673614 95
15.719387 -6.8023872 -3.9543321 84
31.195034 3.52665 -1.8847359 85
25.787586 -11.137918 -2.4575641 81
71.859375 -31.007027 4.1016259 25
20.2048 2.312762 -3.3773849 96
16.141272 -6.95153 -3.4161439 82
38.553623 4.426713 -0.97370499 81
30.724133 -13.219192 -1.752897 71
14.843363 1.72006 -4.1204462 82
13.042907 -5.5955882 -4.3390932 76
22.864973 2.6577001 -3.003119 95
16.564615 -7.0996041 -2.8543971 210
50.042133 5.8343291 0.493949 34
38.176605 -16.330976 -0.72478598 37
16.320169 1.920066 -3.9215729 92
14.273932 -6.0942378 -4.1586962 82
26.30134 3.103658 -2.5202739 90
17.35465 -7.4023862 -2.316627 53
50.332275 -21.447775 0.954992 19
18.053684 2.149575 -3.6750121 95
15.750608 -6.698719 -3.95152 84
31.178564 3.723336 -1.886549 85
25.821529 -10.971229 -2.454551 81
72.589882 -30.812578 4.132813 29
20.204138 2.44139 -3.380734 97
16.450567 -6.9625301 -3.472276 82
38.626728 4.6811862 -0.97804302 80
30.746223 -13.000364 -1.749462 71
74.628281 -31.524223 7.0877471 23
14.834312 1.81354 -4.1217728 82
13.066586 -5.5087962 -4.3353701 76
22.839613 2.8003039 -3.0031109 95
16.584221 -6.984993 -2.850157 72
50.078365 6.1577201 0.492387 33
38.148102 -16.051659 -0.72242302 36
16.309484 2.0170009 -3.9225791 92
14.301364 -5.9999952 -4.155623 82
26.31883 3.2735181 -2.5250931 90
17.407719 -7.2960911 -2.3175449 210
50.290417 -21.057568 0.95166898 22
18.047974 2.263989 -3.677551 95
15.780552 -6.594677 -3.948559 84
31.21192 3.926378 -1.891461 85
25.863056 -10.797543 -2.4520011 82
73.079071 -30.479761 4.1496792 26
20.183987 2.5605669 -3.3807559 97
16.735891 -6.9664798 -3.5237131 81
38.606941 4.9114208 -0.97993499 80
30.758533 -12.790948 -1.745813 71
74.596832 -30.960054 7.0661449 11
14.825159 1.9070359 -4.1232371 82
13.089655 -5.4219131 -4.331635 76
22.815092 2.9429181 -3.0033331 95
16.715908 -6.9171209 -2.865262 73
50.217678 6.495399 0.491844 32
38.210812 -15.796194 -0.721717 40
16.299774 2.119863 -3.9241819 92
14.324055 -5.909801 -4.1519532 82
26.325439 3.433094 -2.5287941 91
69.761932 9.1224022 3.1411541 66
50.23951 -20.686722 0.94836599 20
18.038916 2.3780711 -3.6795571 96
15.80805 -6.4898009 -3.945158 84
31.191187 4.1230121 -1.893178 85
25.912567 -10.627519 -2.450316 82
73.60379 -30.157106 4.168633 18
20.207413 2.6926539 -3.3884139 97
17.519096 -7.1636829 -3.6790659 81
38.657722 5.164907 -0.98380798 80
30.798716 -12.581267 -1.743572 71
14.814966 1.995163 -4.124341 82
13.111733 -5.3347888 -4.327764 77
22.831711 3.0910251 -3.009095 95
17.078035 -6.941617 -2.919801 73
50.271694 6.823802 0.49046901 30
38.234978 -15.525617 -0.72031701 38
16.290016 2.222765 -3.9259329 92
14.349714 -5.8151488 -4.1487169 82
26.35124 3.604984 -2.5346279 93
68.893227 9.4494448 3.101469 63
50.088238 -20.277651 0.94322199 20
18.035254 2.4801431 -3.682363 96
15.834636 -6.39118 -3.9422579 84
31.188107 4.3110619 -1.895875 85
25.909128 -10.446934 -2.4440849 82
74.376854 -29.959639 4.2022729 19
20.215549 2.815928 -3.3934381 97
17.554539 -7.05688 -3.677649 81
38.624649 5.39397 -0.98544699 80
30.816904 -12.375824 -1.740414 71
14.807158 2.0836451 -4.126256 82
13.130226 -5.2570338 -4.3241091 77
22.825476 3.220098 -3.0115571 95
17.359186 -6.936152 -2.960779 73
50.368984 7.1416602 0.489627 29
38.224144 -15.257623 -0.71839398 39
16.282574 2.3202519 -3.92816 92
14.373313 -5.7256489 -4.1456442 82
26.311337 3.758713 -2.534054 93
18.238552 -7.2580018 -2.410218 49
68.749153 9.8456678 3.0945511 60
50.068756 -19.904537 0.94048202 21
18.025852 2.594353 -3.6845829 96
15.854982 -6.2902398 -3.9379621 84
31.228464 4.505652 -1.9012901 85
25.961441 -10.289347 -2.443217 82
20.197872 2.94295 -3.39448 97
17.590328 -6.9432049 -3.675935 82
38.696018 5.6520338 -0.98994499 79
30.833124 -12.157927 -1.736981 72
14.797268 2.1771531 -4.127995 82
13.154585 -5.171124 -4.3213449 80
22.822472 3.3660581 -3.0149751 95
17.937639 -7.0441351 -3.0522561 73
50.45499 7.4595399 0.48867899 30
38.243656 -15.002929 -0.71707499 37
16.273794 2.4176171 -3.930207 92
14.397444 -5.6307049 -4.1423178 82
26.309046 3.927217 -2.537395 94
18.484655 -7.2217369 -2.436697 210
68.786232 10.292441 3.0958741 56
49.967434 -19.501585 0.93625802 19
18.023981 2.7097831 -3.6884949 96
15.880892 -6.185317 -3.9346659 84
31.222586 4.7052498 -1.90415 85
25.978251 -10.107611 -2.4387741 82
20.179945 3.062737 -3.3953829 97
17.615061 -6.8324318 -3.6725659 84
38.715607 5.8897462 -0.99302101 79
30.873436 -11.950229 -1.734988 72
14.786823 2.2706261 -4.129746 82
13.180438 -5.0859079 -4.3192549 81
22.8461 3.51635 -3.022043 95
18.238581 -7.0303702 -3.0958869 73
50.537437 7.7965131 0.48759601 29
38.254616 -14.730554 -0.71553099 37
16.268087 2.5213389 -3.933398 92
14.41803 -5.540339 -4.1387091 82
26.324938 4.0894289 -2.5423939 94
18.767708 -7.2042489 -2.4683299 49
68.75531 10.705327 3.0942619 13
50.000351 -19.153299 0.93460202 18
18.016376 2.8245101 -3.6913869 96
15.908918 -6.081389 -3.932065 84
31.237965 4.9084921 -1.908391 85
26.014526 -9.9339828 -2.4362719 82
20.178377 3.1923299 -3.399404 96
17.643702 -6.7163129 -3.669667 84
38.696884 6.1359062 -0.99531102 78
30.886379 -11.744975 -1.731768 72
14.778206 2.364439 -4.132175 82
13.205042 -5.000308 -4.316937 81
22.828579 3.6606309 -3.023798 95
18.627703 -7.0462551 -3.154361 210
50.725811 8.1521997 0.48753601 27
38.277363 -14.463811 -0.71424198 39
16.260405 2.6248729 -3.9362741 92
14.442282 -5.445765 -4.135767 82
26.311852 4.256876 -2.5449049 94
19.070028 -7.1831522 -2.502106 51
68.495567 11.106127 3.0824511 11
49.953018 -18.796011 0.93161601 21
18.013004 2.933603 -3.69504 96
15.929423 -5.9747891 -3.9277771 83
31.248556 5.111546 -1.9124269 85
26.022316 -9.7500582 -2.431216 82
20.183466 3.323256 -3.4046929 96
17.66515 -6.597703 -3.6654329 84
38.708958 6.387403 -0.99844199 77
30.911322 -11.532681 -1.7290699 72
73.116241 12.091201 8.5027018 42
14.769526 2.4530239 -4.1344719 82
13.23028 -4.9202981 -4.3155661 81
22.82069 3.798403 -3.0267179 95
19.769764 -7.3366041 -3.3398819 76
50.80595 8.4928818 0.48643601 28
38.26088 -14.183505 -0.71225798 43
16.253075 2.72858 -3.9393971 92
14.465597 -5.350987 -4.1327329 82
26.333401 4.430326 -2.550879 94
22.492636 -8.3113546 -2.944263 210
68.641037 11.572793 3.0889909 14
50.033272 -18.468172 0.93093002 24
18.005672 3.0486629 -3.6982861 96
31.244154 5.3013811 -1.915437 85
26.030413 -9.5773287 -2.42662 82
20.191084 3.454951 -3.410557 96
17.691133 -6.48104 -3.662303 85
38.730942 6.641273 -1.00188 76
30.94742 -11.325149 -1.727074 72
72.755844 12.501737 8.4662848 29
14.75908 2.5466819 -4.1367178 82
13.251634 -4.8336811 -4.3125401 81
22.784174 3.939604 -3.0261929 95
19.750965 -7.1965728 -3.329432 78
50.898426 8.8191299 0.485562 37
38.250233 -13.921948 -0.710509 42
16.248337 2.832866 -3.9433129 91
14.492441 -5.257638 -4.1308832 82
26.300293 4.5948648 -2.5516679 93
22.510513 -8.1575813 -2.939836 210
68.906715 12.063326 3.1010571 10
49.949493 -18.081467 0.927239 18
17.997942 3.163806 -3.7016051 96
15.933571 -5.7552948 -3.91117 78
31.242359 5.5032468 -1.918882 84
26.079643 -9.4098225 -2.4256499 82
73.061882 12.895926 5.8894248 34
20.150728 3.57125 -3.408191 96
17.71801 -6.3649068 -3.6595149 85
38.724735 6.8909512 -1.00464 75
30.991568 -11.121005 -1.7256041 72
72.293419 12.890434 8.418272 35
14.747114 2.6401401 -4.1387048 82
13.274955 -4.7478948 -4.3103361 81
22.793142 4.0888128 -3.0318351 95
19.791977 -7.0709701 -3.3287909 80
51.138443 9.1920414 0.48598999 33
38.347988 -13.68528 -0.71071398 42
73.130554 13.171436 11.160159 26
16.237123 2.9302959 -3.9455259 90
14.515388 -5.1686978 -4.1286092 82
26.311522 4.7578959 -2.5566361 93
22.518032 -8.0006018 -2.934195 210
68.341873 12.407498 3.075861 13
50.001938 -17.745913 0.92612398 23
17.986387 3.278409 -3.7042911 95
15.98707 -5.6613188 -3.915493 74
31.266338 5.7102461 -1.924 84
26.111286 -9.2362366 -2.423147 82
72.601082 13.285498 5.855444 9
20.160099 3.703707 -3.414633 95
17.743967 -6.2556009 -3.657145 85
38.672752 7.1187091 -1.006091 74
31.012825 -10.921341 -1.7231489 72
14.737036 2.7340081 -4.1413922 82
13.294407 -4.6608462 -4.3070579 81
22.795994 4.2373338 -3.036798 95
19.83605 -6.9464869 -3.3287971 80
49.86198 9.2863836 0.472054 54
38.324833 -13.40615 -0.708709 43
73.066231 13.634377 11.159635 37
16.22784 3.0340259 -3.948657 90
14.543765 -5.0760632 -4.1275272 82
26.31879 4.930181 -2.5615599 92
22.551382 -7.862051 -2.93241 210
68.555412 12.866949 3.0857911 14
49.887272 -17.372587 0.92207497 18
17.978155 3.3872581 -3.707521 94
16.015924 -5.558537 -3.913929 71
31.20447 5.9017849 -1.923918 84
26.124683 -9.0566978 -2.4190619 82
20.150467 3.832973 -3.418005 95
17.770491 -6.1396942 -3.654588 85
38.719276 7.3790908 -1.010318 73
31.040455 -10.712333 -1.720911 72
14.723732 2.8220201 -4.1430202 82
13.317345 -4.5803308 -4.3056068 81
22.773169 4.373055 -3.038204 95
19.85573 -6.8136282 -3.3248501 80
48.966728 9.4383659 0.461815 53
38.345131 -13.14343 -0.70754403 43
16.213903 3.136981 -3.9508171 90
14.56841 -4.9822021 -4.125556 82
26.280304 5.0940928 -2.562139 92
22.55961 -7.7062898 -2.927125 210
68.475082 13.297801 3.0826261 10
49.893974 -17.024176 0.92020297 20
17.963259 3.5014651 -3.709816 94
16.039656 -5.4603448 -3.911741 210
31.237698 6.100286 -1.929569 84
26.110546 -8.8785868 -2.412832 82
20.116188 3.957577 -3.4173341 95
17.797602 -6.024157 -3.652308 85
38.747921 7.6371589 -1.014136 73
31.065575 -10.503034 -1.718611 72
14.712605 2.9158421 -4.145741 82
13.335807 -4.4931779 -4.3023639 81
22.75536 4.518064 -3.0406621 95
19.873362 -6.6881261 -3.3210981 82
48.840343 9.7149458 0.45897099 46
38.397461 -12.907255 -0.707084 41
16.198122 3.2396431 -3.9526889 90
14.595849 -4.889369 -4.1245441 82
26.283119 5.2661972 -2.566854 92
22.6313 -7.5723281 -2.930196 66
68.339813 13.717668 3.0771019 14
49.873234 -16.667997 0.917871 24
17.950113 3.616117 -3.712626 94
16.065741 -5.3568211 -3.909816 210
31.212996 6.2993121 -1.931941 84
26.177444 -8.7182283 -2.413904 82
20.101791 4.078795 -3.4198799 95
17.82036 -5.9073262 -3.6492889 85
38.715195 7.8837299 -1.016398 73
31.082664 -10.291648 -1.715945 73
14.699515 3.009356 -4.1480799 82
13.361823 -4.4086552 -4.3017359 81
22.767929 4.6694422 -3.047313 95
19.9018 -6.5587802 -3.318898 82
48.762863 10.018445 0.45650399 52
38.383755 -12.634787 -0.70535499 44
16.183758 3.3367679 -3.9547369 90
14.615393 -4.799644 -4.1219459 82
26.299276 5.4319582 -2.5727329 92
22.625376 -7.412601 -2.923341 69
68.552193 14.20895 3.0873489 13
49.735329 -16.27523 0.91343302 26
17.933874 3.7302499 -3.7149489 94
16.086597 -5.2516971 -3.906785 210
31.211073 6.5032778 -1.9358079 84
26.181799 -8.5373049 -2.409312 82
20.101667 4.2104421 -3.4252911 97
17.841499 -5.7970548 -3.6465089 85
38.782379 8.1373863 -1.02116 73
31.122225 -10.088209 -1.714595 73
14.688998 3.1034901 -4.1513162 83
13.38343 -4.322731 -4.2998629 81
22.724928 4.809608 -3.0466549 95
19.914528 -6.424542 -3.3142231 82
48.707001 10.326338 0.45425501 51
38.433945 -12.384203 -0.70483398 43
16.169533 3.439889 -3.957304 90
14.640376 -4.7061491 -4.1205711 82
26.279911 5.6003499 -2.5755031 92
22.636847 -7.2678981 -2.919199 71
68.387222 14.598536 3.080672 11
49.793644 -15.948655 0.912646 27
17.919416 3.844861 -3.7177949 94
16.110939 -5.1478539 -3.9047639 210
31.184374 6.7024288 -1.938225 84
26.206526 -8.3635702 -2.4067039 82
62.822334 13.525291 5.083271 210
20.076351 4.3369918 -3.426553 97
17.864342 -5.680634 -3.643811 85
38.812878 8.3987303 -1.0251909 72
31.14529 -9.8918362 -1.712602 73
53.830906 11.668158 6.298965 59
14.676589 3.19733 -4.1541901 83
13.404378 -4.2366748 -4.297956 81
22.745203 4.9634142 -3.054611 95
19.978785 -6.3069549 -3.3182559 82
48.622288 10.628042 0.451749 48
38.447861 -12.122565 -0.70367801 41
16.151831 3.5423441 -3.959182 92
14.657598 -4.6102762 -4.1171842 82
26.269722 5.7709651 -2.579283 92
22.657654 -7.1178541 -2.9160571 74
68.735641 15.125084 3.0972829 12
49.749901 -15.609749 0.91013002 30
17.902964 3.9526019 -3.7200439 94
16.130198 -5.0487151 -3.902101 78
31.221062 6.9043918 -1.9444391 84
26.227913 -8.1891785 -2.4038949 82
63.2701 14.038225 5.1234732 210
20.077318 4.469419 -3.4324479 97
17.887014 -5.5643358 -3.641232 85
38.832432 8.6587286 -1.02899 72
31.138098 -9.6745968 -1.70883 73
54.059719 12.07387 6.3318448 59
14.667421 3.2866211 -4.1577849 83
13.425322 -4.1558318 -4.2966881 80
22.728254 5.1011939 -3.057405 95
20.002035 -6.1840148 -3.315964 82
44.215549 9.9400778 0.40934101 63
38.457211 -11.86038 -0.70247197 43
52.265739 11.788177 8.0290089 56
16.137182 3.64555 -3.961972 94
14.679461 -4.5159922 -4.115273 82
26.241928 5.9379411 -2.5814459 92
22.688066 -6.9710941 -2.9142771 76
68.778687 15.588264 3.1002591 10
49.80555 -15.284137 0.90937299 30
63.186874 14.344105 12.038209 29
17.888912 4.067544 -3.7232749 94
16.153776 -4.9448719 -3.900212 80
31.20948 7.1078048 -1.947971 84
26.272697 -8.0323706 -2.403589 82
63.528732 14.491683 5.148376 210
20.067833 4.599833 -3.436707 97
17.909662 -5.4482021 -3.6388021 85
38.841724 8.917347 -1.032573 72
31.162437 -9.4678736 -1.7068681 73
14.653328 3.3802929 -4.1605172 83
13.443159 -4.0689731 -4.2941289 80
22.721651 5.2498822 -3.062017 95
20.002827 -6.0468302 -3.309732 82
43.957092 10.172538 0.40541199 210
38.515697 -11.628576 -0.70226699 40
52.487068 12.165847 8.0714865 56
16.123083 3.7430601 -3.9646921 94
14.699451 -4.421236 -4.113008 82
26.225 6.107573 -2.5847869 92
22.710773 -6.8222022 -2.9116299 76
49.745163 -14.924267 0.90654099 32
62.191238 14.529574 11.862524 9
17.871029 4.1817398 -3.7258649 94
16.181536 -4.8423829 -3.8994911 83
31.243265 7.3222871 -1.95443 84
26.252739 -7.8462429 -2.3972051 82
64.265167 15.085089 5.212502 61
20.071573 4.7262268 -3.4430439 97
17.932049 -5.3389621 -3.6368489 85
38.886139 9.1707954 -1.036958 72
31.231968 -9.275054 -1.70745 73
14.642005 3.4747169 -4.1642089 83
22.686378 5.3921061 -3.0628941 95
20.035984 -5.9197178 -3.3089981 82
48.47905 11.540395 0.44543299 81
38.518887 -11.365953 -0.70100898 43
16.10619 3.845948 -3.9672489 94
14.71732 -4.331543 -4.110744 82
26.201797 6.266315 -2.5873339 92
22.738583 -6.6837058 -2.910059 78
49.727764 -14.579111 0.90453601 33
17.855764 4.2966781 -3.729156 97
16.205139 -4.7387152 -3.897927 83
31.217588 7.5234971 -1.957262 84
26.292555 -7.6785212 -2.3963881 82
20.021063 4.8473029 -3.440547 97
17.953053 -5.222641 -3.634382 85
38.93301 9.4404659 -1.041659 72
31.206106 -9.0662136 -1.703065 73
14.62221 3.567214 -4.1656642 83
